ply
format ascii 1.0
element vertex 1561
property double x
property double y
property double z
property float intensity
end_header
4.66164 15.7015 -1.94791 0.32
4.63664 15.7046 -1.94791 0.31
4.58262 15.6937 -1.94492 0.3
4.53869 15.7287 -1.94892 0.3
4.48871 15.7388 -1.94893 0.32
4.43973 15.7509 -1.94894 0.29
4.39379 15.78 -1.95194 0.29
4.34481 15.7931 -1.95194 0.34
4.32385 15.8132 -1.95394 0.3
4.27589 15.8322 -1.95595 0.31
4.2249 15.8373 -1.95495 0.29
4.17693 15.8544 -1.95596 0.3
4.12998 15.8785 -1.95796 0.3
4.07899 15.8836 -1.95796 0.3
4.02901 15.8937 -1.95797 0.28
4.00401 15.8978 -1.95797 0.32
3.95504 15.9089 -1.95798 0.28
3.90505 15.917 -1.95798 0.29
3.85204 15.9091 -1.95599 0.29
3.80205 15.9142 -1.956 0.29
3.75105 15.9183 -1.95501 0.3
3.70106 15.9224 -1.95501 0.29
3.65209 15.9395 -1.95602 0.29
3.6271 15.9425 -1.95602 0.29
3.5761 15.9436 -1.95503 0.3
3.52713 15.9567 -1.95603 0.31
3.47613 15.9598 -1.95604 0.29
3.42513 15.9599 -1.95504 0.27
3.37615 15.97 -1.95505 0.37
3.3272 15.9921 -1.95805 0.32
3.30322 16.0031 -1.95905 0.3
3.25221 16.0012 -1.95806 0.28
3.2002 15.9953 -1.95607 0.3
3.1502 15.9954 -1.95508 0.29
3.09819 15.9915 -1.95409 0.3
3.04617 15.9786 -1.95109 0.27
2.99617 15.9797 -1.9511 0.34
2.95998 15.8798 -1.93712 0.21
2.87833 15.5479 -1.89119 0.32
2.82014 15.452 -1.87821 0.31
2.75888 15.3202 -1.85924 0.37
2.7242 15.4822 -1.88122 0.38
2.67928 15.5263 -1.88622 0.37
2.63746 15.6154 -1.89721 0.3
2.60836 15.5635 -1.89022 0.5
2.55628 15.5226 -1.88423 0.32
2.49494 15.3497 -1.86027 0.65
2.40273 14.7288 -1.77638 0.24
2.33305 14.382 -1.72944 0.43
2.28701 14.3591 -1.72545 0.34
2.23687 14.2871 -1.71547 0.41
2.19395 14.3292 -1.72047 0.39
2.17402 14.3643 -1.72547 0.46
2.13526 14.4873 -1.74146 0.37
2.09343 14.5784 -1.75345 0.32
2.04323 14.4725 -1.73847 0.34
1.9993 14.5116 -1.74447 0.36
1.94805 14.3817 -1.7265 0.31
1.90096 14.3338 -1.71951 0.43
1.85488 14.2959 -1.71452 0.34
1.834 14.3539 -1.72152 0.47
1.78896 14.335 -1.71953 0.31
1.74401 14.3601 -1.72253 0.48
1.69902 14.3692 -1.72354 0.24
1.65183 14.2693 -1.70956 0.49
1.60792 14.3144 -1.71556 0.35
1.56284 14.2734 -1.71057 0.5
1.54102 14.3665 -1.72256 0.3
1.49586 14.2856 -1.71158 0.41
1.45085 14.2807 -1.71058 0.45
1.40579 14.2468 -1.7066 0.36
1.36081 14.2608 -1.7086 0.48
1.31509 14.4019 -1.72758 0.32
1.27093 14.322 -1.7166 0.37
1.24884 14.2761 -1.71061 0.35
1.20388 14.2971 -1.71362 0.45
1.15794 14.3252 -1.71762 0.37
1.1139 14.3083 -1.71463 0.36
1.06886 14.2874 -1.71264 0.39
1.02482 14.2625 -1.70965 0.48
0.978872 14.2916 -1.71365 0.3
0.935796 14.2527 -1.70766 0.48
0.912798 14.2537 -1.70866 0.36
0.868788 14.2488 -1.70767 0.46
0.821855 14.2829 -1.71267 0.36
0.776859 14.285 -1.71368 0.39
0.732839 14.2751 -1.71169 0.46
0.68784 14.2751 -1.71269 0.34
0.643801 14.2552 -1.7097 0.53
0.616969 14.3413 -1.72169 0.21
0.575828 14.2694 -1.71271 0.53
0.527932 14.3224 -1.71971 0.39
0.482922 14.3175 -1.71971 0.32
0.43694 14.3266 -1.72172 0.5
0.38417 14.4447 -1.73771 0.33
0.347917 14.3148 -1.72073 0.36
0.325886 14.2988 -1.71874 0.45
0.27795 14.3319 -1.72374 0.35
0.234896 14.304 -1.71975 0.44
0.185985 14.3501 -1.72675 0.39
0.140001 14.3582 -1.72875 0.39
0.0989097 14.3113 -1.72277 0.34
0.049982 14.3484 -1.72777 0.39
0.0108672 14.2894 -1.72078 0.44
-0.0111602 14.2755 -1.71879 0.38
-0.0571346 14.2886 -1.72179 0.39
-0.106082 14.3157 -1.7258 0.39
-0.146171 14.2698 -1.71981 0.5
-0.20297 14.3729 -1.7348 0.36
-0.246991 14.3619 -1.73381 0.41
-0.319541 14.5931 -1.76578 0.38
-0.347476 14.6261 -1.77078 0.31
-0.356081 14.3162 -1.72983 0.28
-0.3942 14.2552 -1.72185 0.5
-0.458911 14.4034 -1.74283 0.45
-0.5187 14.5115 -1.75882 0
0.105531 9.50316 -1.07852 0
0.0932833 9.37618 -1.06154 0
0.0820103 9.2362 -1.04357 0
0.0827957 9.12619 -1.02858 0
-0.0167754 8.83338 -0.991643 0
-0.0447831 8.82943 -0.991648 0
-0.0597692 8.83646 -0.993649 0
-0.091736 8.85352 -0.995651 0
-0.11479 8.82557 -0.992658 0
-0.143796 8.82262 -0.993663 0
-0.171794 8.82368 -0.993667 0
-0.196829 8.80573 -0.991673 0
-0.225831 8.80478 -0.992677 0
-0.252848 8.79583 -0.991682 0
-0.267838 8.80086 -0.993684 0
-0.292871 8.78391 -0.99169 0
-0.322862 8.78897 -0.992693 0
-0.349873 8.78302 -0.992698 0
-0.375902 8.76807 -0.991704 0
-0.405894 8.77213 -0.992707 0
-0.436867 8.78619 -0.99571 0
-0.447898 8.77021 -0.993714 0
-0.475906 8.76626 -0.993718 0
-0.504902 8.76832 -0.994722 0
-0.533901 8.76838 -0.995726 0
-0.561907 8.76543 -0.99673 0
-0.58893 8.75348 -0.995736 0
-0.623873 8.78255 -1.00074 0
-0.635895 8.77157 -0.99974 0.11
-0.66291 8.76363 -0.998745 0.09
-0.693892 8.77269 -1.00175 0.09
-0.71992 8.75874 -0.999753 0.09
-0.746941 8.74779 -0.999759 0.08
-0.774943 8.74684 -1.00076 0.08
-0.803945 8.7459 -1.00177 0.08
-0.82589 8.77394 -1.00577 0
-0.851915 8.76099 -1.00477 0
-0.883891 8.77305 -1.00777 0
-0.90793 8.7531 -1.00578 0
-0.935946 8.74515 -1.00579 0
-0.961967 8.73421 -1.00479 0
-0.994939 8.74827 -1.00779 0
-1.02395 8.74433 -1.0088 0
-1.03696 8.73735 -1.0078 0
-1.06398 8.7294 -1.00781 0
-1.09993 8.75247 -1.01181 0
-1.12397 8.73152 -1.01081 0
-1.15397 8.73258 -1.01182 0
-1.18595 8.74064 -1.01382 0
-1.20999 8.72069 -1.01183 0
-1.22598 8.72672 -1.01383 0
-1.25797 8.73378 -1.01583 0
-1.28598 8.72483 -1.01584 0
-1.313 8.71688 -1.01584 0
-1.34797 8.73095 -1.01885 0
-1.372 8.715 -1.01785 0
-1.40996 8.73807 -1.02285 0.06
-1.43499 8.72212 -1.02186 0
-1.44899 8.72015 -1.02186 0
-1.47601 8.7092 -1.02187 0
-1.50999 8.72027 -1.02487 0
-1.54 8.71732 -1.02487 0
-1.57298 8.72539 -1.02788 0
-1.60199 8.72145 -1.02888 0
-1.63299 8.72151 -1.02989 0
-1.64202 8.70352 -1.02789 0
-1.67203 8.70158 -1.0289 0
-1.70799 8.71865 -1.0329 0
-2.26128 8.57272 -1.041 0
-2.26042 8.49772 -1.03201 0
-2.32328 8.56984 -1.04401 0
-2.46608 8.67512 -1.06501 0
-2.55604 8.69329 -1.07202 0
-2.65902 8.7025 -1.07903 0
-2.87802 8.70392 -1.09206 0
-2.93692 8.75504 -1.10106 0
-2.97888 8.77212 -1.10607 0
-3.0099 8.76318 -1.10707 0
-3.04583 8.80125 -1.11407 0
-3.08979 8.82033 -1.11908 0.08
-3.1477 8.86445 -1.12708 0.16
-3.19167 8.88253 -1.13208 0.18
-3.24062 8.90863 -1.13808 0.23
-6.66795 15.3944 -2.12655 0.25
-6.68412 15.3074 -2.11756 0.27
-6.68224 15.2464 -2.11057 0.27
-6.69841 15.1615 -2.10059 0.18
-6.70162 15.0535 -2.0886 0.41
-6.72874 14.9905 -2.08262 0.25
-6.74291 14.9056 -2.07363 0.27
-6.78398 14.8696 -2.07164 0.27
-6.82505 14.8337 -2.07066 0.27
-6.86711 14.7988 -2.06867 0.27
-6.88217 14.7718 -2.06667 0.27
-6.92523 14.7399 -2.06568 0.28
-6.96131 14.696 -2.0637 0.29
-6.99939 14.656 -2.06071 0.28
-7.04743 14.6331 -2.06172 0.3
-7.07455 14.5742 -2.05673 0.28
-7.10764 14.5253 -2.05274 0.28
-7.12269 14.5003 -2.05175 0.29
-7.14881 14.4393 -2.04576 0.29
-7.20981 14.4395 -2.04977 0.29
-7.24091 14.3895 -2.04678 0.3
-7.28596 14.3616 -2.04679 0.3
-7.33301 14.3387 -2.0468 0.3
-7.3661 14.2908 -2.04382 0.3
-7.38813 14.2768 -2.04382 0.32
-7.42919 14.2429 -2.04283 0.31
-7.47225 14.213 -2.04284 0.3
-7.5173 14.185 -2.04285 0.37
-7.56036 14.1561 -2.04186 0.3
-7.61139 14.1382 -2.04387 0.34
-7.66343 14.1213 -2.04588 0.32
-7.71247 14.1014 -2.04689 0.33
-7.74048 14.0955 -2.0489 0.32
-7.79251 14.0786 -2.04991 0.32
-7.84055 14.0557 -2.05192 0.31
-7.90256 14.0538 -2.05593 0.29
-7.95459 14.0359 -2.05794 0.29
-8.00762 14.022 -2.05995 0.29
-8.05666 13.9991 -2.06096 0.31
-8.07271 13.9751 -2.05996 0.3
-8.1048 13.9282 -2.05698 0.3
-8.14188 13.8883 -2.05499 0.3
-8.18593 13.8603 -2.056 0.3
-8.23099 13.8314 -2.05601 0.31
-8.27205 13.7985 -2.05502 0.3
-8.3171 13.7716 -2.05603 0.31
-8.36515 13.7477 -2.05704 0.32
-8.39117 13.7387 -2.05805 0.3
-8.44021 13.7158 -2.05906 0.29
-8.48427 13.6869 -2.06007 0.29
-8.53132 13.66 -2.06008 0.28
-8.57737 13.6341 -2.06109 0.32
-8.61843 13.6012 -2.0611 0.3
-8.66049 13.5683 -2.06111 0.31
-8.68552 13.5573 -2.06112 0.28
-8.73356 13.5334 -2.06313 0.27
-8.7856 13.5145 -2.06514 0.34
-8.83564 13.4916 -2.06615 0.29
-8.88468 13.4697 -2.06816 0.3
-8.84396 13.3286 -2.05017 0
-9.00572 13.4519 -2.07618 0
-6.27475 9.85354 -1.46736 0
-6.25786 9.79951 -1.46037 0
-6.25598 9.7345 -1.45338 0
-6.26708 9.68553 -1.44938 0
-6.28615 9.64756 -1.44639 0
-6.29126 9.59157 -1.4414 0
-6.30435 9.5476 -1.43741 0
-6.30546 9.4876 -1.43142 0
-6.26961 9.41253 -1.42043 0
-6.28369 9.37055 -1.41744 0
-6.28281 9.30955 -1.41045 0
-6.28193 9.24855 -1.40445 0
-6.28703 9.19556 -1.39946 0
-6.30011 9.15358 -1.39647 0
-6.30522 9.10059 -1.39148 0
-6.30333 9.04158 -1.38449 0
-6.29773 8.83657 -1.36352 0
-6.29684 8.77957 -1.35753 0
-6.30593 8.73458 -1.35354 0
-6.32599 8.70262 -1.35255 0
-6.33303 8.68364 -1.35155 0
-6.3471 8.64466 -1.34856 0
-6.38213 8.62873 -1.34957 0
-6.40918 8.60478 -1.34957 0
-6.43423 8.57683 -1.34958 0
-6.47126 8.5649 -1.35159 0
-6.50529 8.54697 -1.3526 0
-8.01943 8.46492 -1.49082 0
-8.32048 8.4365 -1.51887 0
-8.3735 8.4296 -1.52288 0
-8.4345 8.42872 -1.52988 0
-8.49849 8.42985 -1.53589 0
-8.5565 8.42596 -1.5419 0
-8.61052 8.41707 -1.54691 0
-8.66852 8.41318 -1.55192 0
-8.74151 8.41932 -1.55993 0
-8.79548 8.43743 -1.56693 0
-8.9095 8.42365 -1.57795 0
-8.99347 8.43781 -1.58796 0
-9.11039 8.47904 -1.60397 0.12
-9.16641 8.46915 -1.60898 0.22
-9.22542 8.46226 -1.61499 0.35
-9.2734 8.47236 -1.62 0.2
-9.31245 8.44943 -1.623 0.27
-9.34051 8.41649 -1.62301 0
-9.40751 8.41462 -1.63002 0.12
-9.57137 8.48794 -1.65303 0
-9.57147 8.43294 -1.64904 0
-10.6771 9.1331 -1.82509 0
-10.6792 9.07511 -1.8201 0
-10.6803 9.01711 -1.81511 0
-10.6834 8.96011 -1.81112 0
-10.6955 8.91114 -1.80913 0
-10.8845 8.9315 -1.83115 0.35
-10.8326 8.8654 -1.82015 0.21
-10.8267 8.80239 -1.81416 0
-10.749 8.68924 -1.79717 0.11
-10.7181 8.61018 -1.78718 0
-10.7432 8.57022 -1.78719 0
-10.7912 8.54732 -1.7902 0
-10.8263 8.51439 -1.79221 0
-10.8663 8.51346 -1.79621 0
-10.9123 8.48855 -1.79922 0
-10.9664 8.46966 -1.80423 0
-11.0204 8.44976 -1.80824 0
-11.0835 8.43489 -1.81425 0
-11.1375 8.41499 -1.81926 0
-11.2155 8.40914 -1.82728 0
-11.2815 8.39627 -1.83329 0
-11.2796 8.36627 -1.83129 0.14
-11.3925 8.38349 -1.84531 0.3
-11.4845 8.38667 -1.85632 0.11
-11.5196 8.35173 -1.85733 0
-11.6176 8.35693 -1.86834 0.07
-11.6786 8.33904 -1.87435 0.11
-11.7636 8.33421 -1.88337 0.14
-11.8016 8.33028 -1.88737 0.34
-11.9146 8.3435 -1.90138 0
-11.9717 8.32062 -1.9064 0
-13.819 9.17423 -2.17952 0.08
-13.8531 9.13029 -2.17953 0.23
-13.9091 9.0984 -2.18455 0.16
-13.9582 9.0625 -2.18756 0.39
-13.9713 9.00552 -2.18557 0.24
-13.9774 8.94453 -2.18158 0.19
-13.9985 8.89158 -2.18059 0.4
-14.0136 8.8366 -2.1786 0.23
-14.0137 8.8046 -2.17661 0.19
-14.0258 8.74763 -2.17462 0.39
-14.0309 8.68664 -2.17063 0.24
-14.03 8.62263 -2.16664 0.19
-14.0471 8.56867 -2.16465 0.4
-14.0603 8.51269 -2.16266 0.23
-14.0644 8.4517 -2.15967 0.18
-14.0704 8.42371 -2.15867 0.4
-14.0706 8.36171 -2.15468 0.24
-14.0737 8.30071 -2.15069 0.19
-14.0898 8.24675 -2.1487 0.4
-14.1029 8.19177 -2.14771 0.23
-14.113 8.13479 -2.14473 0.18
-14.1351 8.08383 -2.14474 0.39
-14.1492 8.02986 -2.14275 0.22
-14.1513 7.99986 -2.14075 0.2
-14.1733 7.9499 -2.14076 0.37
-14.1875 7.89593 -2.13877 0.18
-14.1906 7.83594 -2.13578 0.36
-14.1977 7.77795 -2.13279 0.19
-14.1968 7.71695 -2.1298 0.36
-14.2049 7.65996 -2.12681 0.19
-14.192 7.62394 -2.12382 0.23
-14.1861 7.55993 -2.11883 0.18
-14.1722 7.4929 -2.11283 0.34
-14.1564 7.42587 -2.10684 0.21
-14.1405 7.35783 -2.10185 0.25
-14.1736 7.3149 -2.10286 0.32
-14.1987 7.26695 -2.10287 0.25
-14.1937 7.23494 -2.10088 0.26
-14.1709 7.16489 -2.09389 0.2
-14.185 7.11192 -2.0929 0.22
-14.1941 7.05794 -2.09091 0.2
-14.1962 6.99994 -2.08791 0.23
-14.2053 6.94496 -2.08592 0.19
-14.2094 6.88796 -2.08393 0.22
-14.1985 6.85394 -2.07994 0.19
-14.2126 6.80197 -2.07895 0.22
-14.2107 6.74296 -2.07596 0.2
-14.2168 6.68798 -2.07397 0.22
-14.2209 6.63198 -2.07098 0.19
-14.222 6.57498 -2.06799 0.21
-14.2331 6.52201 -2.06699 0.2
-14.2292 6.491 -2.065 0.22
-14.2403 6.43902 -2.06401 0.18
-14.2404 6.38102 -2.06102 0.32
-14.2345 6.32201 -2.05703 0.19
-14.2246 6.26099 -2.05303 0.31
-14.2087 6.19796 -2.04804 0.18
-14.2178 6.14497 -2.04605 0.36
-14.22 6.08998 -2.04406 0.19
-14.206 6.05595 -2.04006 0.36
-14.2061 5.99995 -2.03707 0.18
-14.1992 5.94093 -2.03408 0.35
-14.1974 5.88493 -2.03109 0.19
-14.1985 5.82993 -2.0281 0.36
-14.2006 5.77394 -2.02611 0.18
-14.1917 5.71592 -2.02212 0.36
-14.1937 5.68892 -2.02112 0.18
-14.1818 5.6289 -2.01713 0.35
-14.1959 5.57892 -2.01614 0.19
-14.1851 5.5199 -2.01215 0.36
-14.1812 5.46389 -2.00915 0.18
-14.1763 5.40788 -2.00616 0.36
-14.1834 5.3559 -2.00517 0.19
-14.1665 5.29486 -2.00018 0.34
-14.1785 5.27189 -2.00118 0.19
-14.1647 5.21286 -1.99619 0.35
-14.1698 5.16087 -1.9952 0.19
-14.1709 5.10687 -1.99321 0.37
-14.163 5.05086 -1.98922 0.23
-14.1501 4.99283 -1.98522 0.18
-14.1642 4.94286 -1.98523 0.39
-14.1332 4.9068 -1.97923 0.23
-14.1184 4.84877 -1.97524 0.2
-14.1225 4.79677 -1.97425 0.41
-14.1056 4.73874 -1.96926 0.24
-14.0857 4.6797 -1.96426 0.25
-14.0818 4.62569 -1.96227 0.27
-14.0829 4.5727 -1.96028 0.28
-14.063 4.54066 -1.95628 0.29
-14.0451 4.48262 -1.95129 0.29
-14.0362 4.4276 -1.9483 0.31
-14.0293 4.37359 -1.9453 0.25
-13.9724 4.30548 -1.93531 0.22
-13.9965 4.26052 -1.93732 0.37
-13.9946 4.20852 -1.93532 0.4
-13.9917 4.18151 -1.93433 0.34
-14.0087 4.13455 -1.93434 0.37
-14.0368 4.0896 -1.93635 0.49
-14.0479 4.04162 -1.93636 0.3
-14.072 3.99567 -1.93837 0.31
-14.0771 3.94568 -1.93638 0.3
-14.1002 3.89972 -1.93839 0.29
-14.1133 3.85075 -1.9384 0.3
-14.1193 3.82676 -1.9384 0.29
-14.1304 3.77778 -1.93841 0.29
-14.1465 3.73081 -1.93942 0.27
-14.1486 3.67982 -1.93743 0.29
-14.1537 3.62983 -1.93644 0.29
-14.1618 3.57984 -1.93645 0.28
-14.1919 3.5359 -1.93946 0.28
-14.188 3.50889 -1.93746 0.27
-14.1951 3.45891 -1.93747 0.26
-14.2081 3.41093 -1.93748 0.26
-14.2182 3.36195 -1.93749 0.28
-14.2193 3.31095 -1.9365 0.26
-14.2334 3.26298 -1.93651 0.25
-14.2275 3.21097 -1.93451 0.28
-14.2436 3.163 -1.93552 0.27
-14.2507 3.13901 -1.93553 0.26
-14.2488 3.08701 -1.93454 0.27
-14.2569 3.03802 -1.93354 0.27
-14.266 2.98904 -1.93355 0.27
-14.2651 2.93804 -1.93256 0.29
-14.2712 2.88805 -1.93157 0.29
-14.2892 2.84109 -1.93358 0.27
-14.2883 2.81508 -1.93258 0.27
-14.2894 2.76509 -1.93159 0.28
-14.3095 2.71813 -1.9326 0.28
-14.3006 2.66511 -1.93061 0.28
-14.3187 2.61814 -1.93162 0.29
-14.3168 2.56714 -1.93063 0.28
-14.3209 2.51715 -1.93064 0.28
-14.3209 2.49215 -1.92964 0.29
-14.336 2.44418 -1.93065 0.27
-14.3141 2.39013 -1.92665 0.3
-14.3292 2.34216 -1.92766 0.29
-14.3413 2.29319 -1.92867 0.29
-14.3504 2.2442 -1.92868 0.29
-14.3475 2.1932 -1.92769 0.28
-14.3656 2.14623 -1.9287 0.28
-14.3576 2.11922 -1.9277 0.26
-14.3537 2.06921 -1.92571 0.25
-14.4058 2.02531 -1.93172 0.23
-14.3769 1.97125 -1.92773 0.18
-14.398 1.92429 -1.92974 0.43
-14.4001 1.8743 -1.92875 0.24
-14.4002 1.8243 -1.92776 0.24
-14.3973 1.79829 -1.92776 0.17
-14.4184 1.75033 -1.92977 0.42
-14.4125 1.70032 -1.92778 0.23
-14.4116 1.64932 -1.92678 0.19
-14.4186 1.60033 -1.92779 0.41
-14.3997 1.5483 -1.9238 0.24
-14.4068 1.49931 -1.92481 0.27
-14.4109 1.44932 -1.92482 0.26
-14.404 1.4243 -1.92282 0.26
-14.3981 1.37329 -1.92183 0.25
-14.4082 1.32431 -1.92283 0.27
-14.3883 1.27327 -1.91984 0.27
-14.3884 1.22327 -1.91885 0.29
-14.3985 1.17429 -1.91986 0.28
-14.3816 1.12326 -1.91686 0.26
-14.3896 1.09927 -1.91787 0.26
-14.3967 1.05029 -1.91788 0.24
-14.3668 0.99823 -1.91388 0.18
-14.3779 0.949252 -1.91489 0.29
-14.41 0.902314 -1.9189 0.25
-14.3651 0.850226 -1.9129 0.53
-14.4172 0.803328 -1.91892 0.22
-14.4262 0.778345 -1.91992 0.2
-14.4253 0.728343 -1.91993 0.36
-14.4434 0.680379 -1.92194 0.2
-14.4395 0.630371 -1.92095 0.35
-14.4446 0.580381 -1.92196 0.19
-14.4447 0.531381 -1.92096 0.23
-14.4468 0.481385 -1.92097 0.2
-14.4319 0.431355 -1.91898 0.21
-14.431 0.406354 -1.91898 0.21
-14.4181 0.356328 -1.91699 0.22
-14.4071 0.306307 -1.91599 0.21
-14.3962 0.257285 -1.914 0.2
-14.3773 0.207248 -1.91101 0.37
-14.3754 0.158245 -1.91101 0.23
-14.3565 0.108208 -1.90802 0.19
-14.3546 0.0842037 -1.90802 0.42
-14.3327 0.0341609 -1.90503 0.25
-14.3288 -0.0148468 -1.90503 0.27
-14.3329 -0.063839 -1.90504 0.27
-14.322 -0.11286 -1.90405 0.27
-14.3281 -0.162848 -1.90506 0.27
-14.3311 -0.211843 -1.90506 0.29
-14.3302 -0.260844 -1.90507 0.26
-14.3043 -0.284895 -1.90207 0.19
-14.3134 -0.334877 -1.90308 0.45
-14.2965 -0.38391 -1.90109 0.25
-14.3046 -0.432895 -1.9021 0.27
-14.3057 -0.481893 -1.9021 0.26
-14.2818 -0.530939 -1.90011 0.2
-14.2839 -0.579935 -1.90012 0.43
-14.2829 -0.604937 -1.90012 0.25
-14.279 -0.653945 -1.90013 0.24
-14.2651 -0.701972 -1.89813 0.18
-14.2732 -0.751956 -1.90014 0.42
-14.2663 -0.80097 -1.89915 0.23
-14.2644 -0.849974 -1.89916 0.2
-14.2615 -0.898979 -1.89916 0.37
-14.2635 -0.922975 -1.90017 0.19
-14.2546 -0.971993 -1.89917 0.36
-14.2477 -1.02101 -1.89818 0.18
-14.2348 -1.06903 -1.89719 0.35
-14.2269 -1.11805 -1.89619 0.19
-14.202 -1.1651 -1.8932 0.35
-14.1881 -1.21312 -1.8922 0.23
-14.1722 -1.26115 -1.89021 0.18
-14.0653 -1.30136 -1.8772 0.25
-14.0594 -1.34937 -1.8762 0.26
-14.0614 -1.39837 -1.87721 0.26
-14.0605 -1.42237 -1.87722 0.26
-14.0446 -1.4694 -1.87622 0.27
-14.0437 -1.5184 -1.87623 0.29
-14.0348 -1.56642 -1.87624 0.29
-14.0279 -1.61444 -1.87524 0.29
-14.023 -1.66245 -1.87525 0.29
-14.019 -1.71145 -1.87626 0.29
-14.0101 -1.75947 -1.87526 0.29
-14.0032 -1.78248 -1.87527 0.25
-13.9763 -1.82854 -1.87227 0.19
-13.8603 -1.86276 -1.85726 0.27
-13.8124 -1.90586 -1.85126 0.41
-13.7715 -1.94894 -1.84626 0.34
-13.7686 -1.99694 -1.84727 0.39
-13.7057 -2.03606 -1.83926 0.38
-13.6947 -2.05909 -1.83827 0.54
-13.5248 -2.08342 -1.81625 0.27
-13.2188 -2.08602 -1.7752 0.21
-13.1319 -2.12019 -1.7642 0.42
-13.1229 -2.1652 -1.7642 0.25
-13.11 -2.20923 -1.76321 0.2
-13.2632 -2.28093 -1.78524 0.29
-13.3162 -2.31282 -1.79325 0.38
-13.3463 -2.36477 -1.79826 0.31
-13.3874 -2.41869 -1.80428 0.23
-13.4445 -2.47657 -1.8133 0.39
-13.4656 -2.52753 -1.81731 0.32
-13.4897 -2.57949 -1.82132 0.29
-13.8149 -2.68585 -1.86738 0.26
-13.876 -2.74673 -1.8774 0.33
-13.9481 -2.78459 -1.88741 0.2
-13.9882 -2.84151 -1.89443 0.44
-14.0333 -2.90042 -1.90144 0.2
-13.9954 -2.9425 -1.89745 0.28
-14.0185 -2.99745 -1.90246 0.25
-13.9086 -3.02567 -1.88845 0.27
-13.8657 -3.06675 -1.88345 0.2
-13.7717 -3.07193 -1.87143 0.21
-13.7408 -3.11499 -1.86844 0.37
-13.7038 -3.15707 -1.86444 0.18
-13.5249 -3.16842 -1.84142 0.36
-13.2769 -3.1629 -1.80838 0.19
-12.9298 -3.13458 -1.76233 0.14
-12.6858 -3.12605 -1.73029 0
-13.9695 -3.49055 -1.90953 0.27
-13.9716 -3.54154 -1.91154 0.16
-13.9937 -3.5975 -1.91655 0.28
-13.9648 -3.64156 -1.91355 0.18
-13.9529 -3.68958 -1.91356 0.24
-13.926 -3.73463 -1.91156 0.21
-13.9351 -3.78761 -1.91457 0.21
-13.9181 -3.80865 -1.91257 0.38
-13.9172 -3.85965 -1.91458 0.25
-13.8643 -3.89675 -1.90858 0.24
-13.8634 -3.94775 -1.91059 0.31
-13.8204 -3.98784 -1.90659 0.25
-13.7675 -4.02494 -1.90058 0.26
-13.7556 -4.07196 -1.90059 0.26
-13.7356 -4.092 -1.89859 0.29
-13.6847 -4.1291 -1.89359 0.29
-13.6788 -4.17811 -1.8946 0.29
-13.6699 -4.22613 -1.8946 0.31
-13.652 -4.27216 -1.89461 0.28
-13.6351 -4.3182 -1.89361 0.23
-13.5371 -4.34139 -1.8826 0.4
-13.5952 -4.38327 -1.89162 0.25
-13.6273 -4.44421 -1.89763 0.34
-13.5124 -4.46044 -1.88362 0.27
-13.5495 -4.52336 -1.89063 0.29
-13.4535 -4.54455 -1.87962 0.29
-13.5207 -4.61642 -1.89064 0.25
-13.4777 -4.6545 -1.88664 0.28
-13.0666 -4.57431 -1.83057 0.21
-13.0516 -4.59433 -1.82957 0.38
-13.0417 -4.64135 -1.82958 0.23
-12.9077 -4.64762 -1.81356 0.19
-12.7787 -4.65387 -1.79654 0.39
-12.6137 -4.64819 -1.77552 0.23
-12.4357 -4.63654 -1.75249 0.2
-12.2447 -4.61991 -1.72746 0.15
-12.0796 -4.58723 -1.70444 0
-11.9787 -4.59943 -1.69242 0
-13.0405 -5.06935 -1.84865 0.23
-13.0526 -5.12433 -1.85266 0.27
-13.0297 -5.16737 -1.85166 0.28
-12.9758 -5.19848 -1.84666 0.29
-12.8458 -5.20173 -1.82964 0.28
-12.7558 -5.19391 -1.81763 0.33
-12.7289 -5.23396 -1.81663 0.32
-12.5899 -5.23223 -1.79861 0.28
-12.5449 -5.26532 -1.79461 0.28
-12.516 -5.30338 -1.79261 0.3
-12.388 -5.30463 -1.77659 0.38
-12.3471 -5.33771 -1.77359 0.33
-12.3151 -5.34977 -1.76959 0.34
-12.2241 -5.36395 -1.75958 0.25
-12.2332 -5.41693 -1.76259 0.43
-12.1793 -5.44403 -1.75758 0.3
-12.1674 -5.48906 -1.75859 0.37
-12.2015 -5.55299 -1.7656 0.26
-12.2096 -5.60597 -1.76961 0.37
-12.1736 -5.61604 -1.76561 0.32
-12.2157 -5.68396 -1.77463 0.27
-12.2328 -5.74093 -1.77964 0.42
-12.1309 -5.74813 -1.76762 0.33
-12.2491 -5.84889 -1.78766 0.36
-12.2001 -5.87799 -1.78266 0.29
-12.2322 -5.94293 -1.79067 0.27
-12.2243 -5.99094 -1.79168 0.32
-12.1953 -6.003 -1.78867 0.34
-12.1214 -6.02114 -1.78067 0.37
-12.2076 -6.11097 -1.79669 0.32
-12.1016 -6.11418 -1.78368 0.36
-12.0716 -6.15124 -1.78168 0.26
-11.8776 -6.11262 -1.75565 0.15
-11.7295 -6.09391 -1.73662 0.46
-11.7666 -6.13583 -1.74363 0.24
-11.7277 -6.16791 -1.74063 0.26
-11.6207 -6.16712 -1.72762 0.27
-11.5167 -6.16732 -1.7156 0.27
-11.4097 -6.16553 -1.70159 0.27
-11.3127 -6.16672 -1.69058 0.27
-11.1917 -6.15696 -1.67456 0.27
-11.0676 -6.1442 -1.65954 0.28
-10.9546 -6.11242 -1.64352 0.29
-10.8786 -6.12257 -1.63551 0.24
-10.7746 -6.11777 -1.62249 0.13
-11.9499 -6.81947 -1.80677 0.28
-11.8719 -6.83162 -1.79776 0.28
-11.8911 -6.89458 -1.80477 0.47
-11.8611 -6.90464 -1.80177 0.34
-11.8582 -6.95665 -1.80478 0.32
-11.8643 -7.01264 -1.80879 0.41
-11.8284 -7.04671 -1.80679 0.31
-11.7714 -7.06982 -1.80078 0.31
-11.7004 -7.08396 -1.79377 0.3
-11.6345 -7.10108 -1.78677 0.26
-11.6475 -7.13506 -1.79077 0.3
-11.6266 -7.1771 -1.79078 0.34
-11.6097 -7.22013 -1.79178 0.31
-11.5958 -7.26616 -1.79279 0.35
-11.5969 -7.32016 -1.7968 0.34
-11.5219 -7.3313 -1.78879 0.32
-11.5611 -7.40722 -1.79881 0.25
-11.456 -7.37443 -1.78379 0.45
-11.4691 -7.4354 -1.7898 0.25
-11.3471 -7.41764 -1.77378 0.36
-11.4032 -7.50453 -1.7868 0.34
-11.3523 -7.52863 -1.7828 0.29
-11.2833 -7.54076 -1.77479 0.34
-11.2384 -7.56785 -1.77179 0.39
-11.1844 -7.58896 -1.76678 0.3
-11.0643 -7.54319 -1.74976 0.29
-10.9863 -7.54834 -1.74175 0.27
-10.9354 -7.57044 -1.73674 0.26
-10.9215 -7.61547 -1.73875 0.22
-10.8675 -7.63457 -1.73374 0.21
-10.7915 -7.64072 -1.72573 0.18
-10.7356 -7.65883 -1.72073 0.4
-10.6615 -7.63798 -1.71072 0.23
-10.5815 -7.63913 -1.7017 0.21
-10.5035 -7.64228 -1.69269 0.38
-10.4205 -7.64045 -1.68368 0.2
-10.3425 -7.6426 -1.67467 0.37
-10.2655 -7.64475 -1.66666 0.21
-10.1745 -7.63593 -1.65565 0.21
-10.0825 -7.62711 -1.64463 0.37
-10.0185 -7.60923 -1.63562 0.22
-9.91744 -7.59243 -1.6236 0.14
-9.81941 -7.57762 -1.61159 0
-9.75643 -7.58574 -1.60458 0
-9.68844 -7.59087 -1.59757 0
-9.63346 -7.60398 -1.59257 0
-10.4717 -8.26934 -1.73679 0.21
-10.4198 -8.28844 -1.73278 0.25
-10.3828 -8.31651 -1.73078 0.48
-10.3579 -8.35456 -1.73079 0.34
-10.2639 -8.34274 -1.71977 0.26
-10.26 -8.39575 -1.72378 0.39
-10.195 -8.40388 -1.71677 0.34
-10.1209 -8.37802 -1.70676 0.34
-10.052 -8.38216 -1.69975 0.31
-9.97896 -8.3833 -1.69174 0.36
-9.89695 -8.37746 -1.68272 0.33
-9.82495 -8.3786 -1.67471 0.32
-9.74494 -8.37276 -1.6657 0.32
-9.67494 -8.37389 -1.65769 0.28
-9.61591 -8.35601 -1.65068 0.31
-9.54591 -8.35714 -1.64267 0.33
-9.47391 -8.35528 -1.63466 0.31
-9.40491 -8.35642 -1.62765 0.3
-9.33491 -8.35655 -1.62064 0.31
-9.2559 -8.34771 -1.61163 0.32
-9.19691 -8.35482 -1.60562 0.31
-9.12591 -8.35296 -1.59761 0.31
-9.06987 -8.33407 -1.5906 0.32
-9.01089 -8.34119 -1.5846 0.33
-8.93387 -8.33234 -1.57558 0.31
-8.87689 -8.33945 -1.57058 0.36
-8.80788 -8.33558 -1.56357 0.35
-8.74989 -8.3417 -1.55756 0.31
-8.71694 -8.36776 -1.55656 0.38
-8.69496 -8.3758 -1.55456 0.3
-8.75316 -8.47869 -1.56958 0.28
-8.72121 -8.50575 -1.56858 0.4
-8.60613 -8.46297 -1.55356 0.31
-8.56917 -8.48505 -1.55156 0.27
-8.50517 -8.48317 -1.54455 0.41
-8.53532 -8.56411 -1.55456 0.3
-8.51935 -8.57714 -1.55456 0.46
-8.45735 -8.57726 -1.54855 0.35
-8.41438 -8.59435 -1.54555 0.42
-8.37242 -8.61143 -1.54255 0.34
-8.3615 -8.65645 -1.54555 0.4
-8.37162 -8.72043 -1.55257 0.39
-8.25854 -8.67365 -1.53654 0.4
-8.22253 -8.66872 -1.53254 0.39
-8.21161 -8.71374 -1.53554 0.41
-8.17666 -8.73681 -1.53454 0.41
-8.11265 -8.73293 -1.52753 0.41
-8.04664 -8.72606 -1.52052 0.39
-7.98263 -8.72118 -1.51351 0.41
-7.94667 -8.74225 -1.51151 0.37
-7.93075 -8.78328 -1.51451 0.4
-7.91077 -8.79232 -1.51351 0.41
-7.88683 -8.82337 -1.51351 0.34
-7.83184 -8.82648 -1.50851 0.46
-7.76281 -8.81561 -1.50049 0.36
-7.71784 -8.8277 -1.49749 0.38
-7.73498 -8.90066 -1.5065 0.39
-7.60684 -8.82992 -1.48748 0.37
-7.58085 -8.83097 -1.48447 0.39
-7.44069 -8.74724 -1.46344 0.37
-7.45883 -8.8212 -1.47245 0.45
-7.42988 -8.84726 -1.47145 0.31
-7.40394 -8.87631 -1.47245 0.42
-7.36697 -8.89538 -1.47045 0.35
-7.38211 -8.96635 -1.47847 0.43
-7.26593 -8.87458 -1.45943 0.45
-7.246 -8.91062 -1.46044 0.32
-7.19601 -8.91471 -1.45643 0.44
-7.16606 -8.93877 -1.45543 0.32
-7.14212 -8.96982 -1.45643 0.47
-7.09012 -8.97192 -1.45243 0.28
-7.06919 -9.00496 -1.45343 0.53
-6.98512 -8.97212 -1.44241 0.36
-7.00121 -9.01709 -1.44842 0.36
-6.98228 -9.05413 -1.45042 0.45
-6.94632 -9.0722 -1.44842 0.34
-6.86726 -9.04235 -1.43841 0.47
-6.80323 -9.02848 -1.43139 0.39
-6.75123 -9.02758 -1.42639 0.39
-6.71326 -9.04265 -1.42438 0.4
-6.71532 -9.07365 -1.42839 0.41
-6.67434 -9.08473 -1.42538 0.4
-6.60029 -9.05787 -1.41637 0.4
-6.52223 -9.02602 -1.40635 0.41
-6.50932 -9.06905 -1.40936 0.32
-6.48537 -9.09809 -1.41036 0.44
-6.40931 -9.06624 -1.40034 0.39
-6.37434 -9.08331 -1.39834 0.38
-6.36738 -9.10432 -1.40034 0.34
-6.35447 -9.14735 -1.40335 0.46
-6.33453 -9.18239 -1.40535 0.39
-6.26048 -9.15253 -1.39634 0.33
-6.12427 -9.0448 -1.3733 0.43
-6.16548 -9.15372 -1.38832 0.41
-6.10946 -9.14383 -1.38231 0.4
-6.06542 -9.11891 -1.3753 0.47
-6.05049 -9.15894 -1.37831 0.31
-6.02855 -9.19098 -1.38031 0.31
-6.0437 -9.26995 -1.39033 0.41
-6.01375 -9.29201 -1.38932 0.46
-6.00484 -9.34203 -1.39433 0.25
-5.9418 -9.32115 -1.38632 0.58
-5.71731 -9.06159 -1.34025 0.28
-5.88484 -9.33826 -1.38331 0.37
-5.84887 -9.35233 -1.38231 0.41
-5.80287 -9.35342 -1.3783 0.27
-5.74183 -9.33454 -1.37129 0.45
-5.63869 -9.25874 -1.35527 0.29
-5.65484 -9.34071 -1.36528 0.37
-5.69701 -9.42862 -1.3783 0.38
-5.62595 -9.39476 -1.36929 0.37
-5.54185 -9.34093 -1.35627 0.48
-5.37152 -9.17126 -1.32422 0.27
-5.45085 -9.3411 -1.34925 0.29
-5.40986 -9.34618 -1.34625 0.42
-5.42 -9.42216 -1.35526 0.4
-5.46124 -9.54408 -1.37229 0.33
-5.34598 -9.41231 -1.34825 0.44
-5.3802 -9.52424 -1.36327 0.36
-5.27202 -9.43245 -1.34524 0.34
-5.23003 -9.43553 -1.34224 0.38
-5.24018 -9.51551 -1.35125 0.44
-5.26437 -9.61446 -1.36427 0.35
-5.18527 -9.56262 -1.35225 0.43
-5.03993 -9.3809 -1.3212 0.36
-5.17644 -9.64763 -1.36126 0.3
-5.04017 -9.5099 -1.33622 0.46
-5.04933 -9.58988 -1.34524 0.32
-5.09559 -9.72579 -1.36426 0.29
-5.06362 -9.74285 -1.36326 0.42
-5.03467 -9.76591 -1.36426 0.45
-4.84718 -9.51027 -1.3212 0.35
-4.82624 -9.54431 -1.3242 0.35
-4.9367 -9.7821 -1.35925 0.39
-4.57173 -9.27681 -1.27512 0.46
-4.76143 -9.64244 -1.3302 0.32
-4.79767 -9.76737 -1.34723 0.3
-4.35344 -9.12124 -1.24107 0.41
-4.59832 -9.58276 -1.31217 0.3
-4.58334 -9.59279 -1.31217 0.51
-4.59751 -9.68376 -1.32319 0.19
-4.57357 -9.7128 -1.32519 0.44
-4.62486 -9.8667 -1.34622 0.45
-4.45345 -9.65104 -1.30916 0.18
-4.37934 -9.59618 -1.29814 0.3
-4.40356 -9.70613 -1.31216 0.45
-4.48589 -9.88097 -1.3382 0.26
-4.3265 -9.67828 -1.30415 0.53
-4.54335 -10.1229 -1.37025 0.2
-4.26056 -9.70541 -1.30214 0.32
-4.24564 -9.75044 -1.30715 0.35
-4.01199 -9.4109 -1.25106 0.29
-3.79238 -9.08933 -1.19898 0.39
-4.1607 -9.7806 -1.30414 0.34
-4.16786 -9.86459 -1.31516 0.14
-3.88603 -9.42814 -1.24505 0.55
-4.03167 -9.76585 -1.29412 0.21
-4.08901 -9.94274 -1.31916 0.49
-4.06005 -9.9648 -1.32016 0.13
-4.00902 -9.9449 -1.31415 0.48
-3.92192 -9.89506 -1.30213 0.54
-3.70628 -9.56049 -1.24904 0.24
-3.81181 -9.83628 -1.2891 0.48
-3.87017 -10.0232 -1.31514 0.25
-3.70671 -9.78448 -1.27608 0.43
-3.72091 -9.88846 -1.2891 0.22
-3.51621 -9.52386 -1.23301 0.52
-4.07849 -10.7137 -1.41028 0.3
-3.90398 -10.4491 -1.36821 0.18
-3.45742 -9.63097 -1.24202 0.3
-3.65433 -10.1086 -1.31212 0.45
-3.38543 -9.63811 -1.23901 0.43
-3.4147 -9.77605 -1.25704 0.18
-3.3265 -9.67122 -1.23901 0.54
-3.28641 -9.6263 -1.231 0.29
-3.81871 -10.8262 -1.40826 0.3
-3.7747 -10.8213 -1.40525 0.29
-3.73671 -10.8304 -1.40425 0.31
-3.51698 -10.4448 -1.34416 0.19
-3.0624 -9.62174 -1.21796 0.62
-3.4943 -10.6129 -1.36418 0.23
-3.56678 -10.8627 -1.39823 0.32
-3.50669 -10.8199 -1.39021 0.26
-3.49784 -10.8939 -1.39822 0.29
-3.40561 -10.7761 -1.37919 0.26
-3.42688 -10.918 -1.39822 0.29
-3.38789 -10.9221 -1.39621 0.33
-3.34689 -10.9212 -1.39421 0.27
-3.33292 -10.9372 -1.39521 0.29
-2.92325 -10.061 -1.26501 0.23
-2.94954 -10.2129 -1.28504 0.4
-3.21594 -10.9464 -1.39019 0.29
-2.6937 -9.77445 -1.21694 0.18
-2.72702 -9.94438 -1.23997 0.34
-2.54734 -9.58774 -1.18589 0.43
-3.08197 -10.9627 -1.38518 0.29
-3.048 -10.9787 -1.38517 0.29
-3.01001 -10.9828 -1.38417 0.29
-2.96398 -10.9669 -1.38016 0.18
-2.43155 -9.69596 -1.19389 0.47
-2.40157 -9.70802 -1.19388 0.3
-2.86207 -11.0131 -1.38115 0.29
-2.83905 -11.0041 -1.37815 0.31
-2.80608 -11.0212 -1.37915 0.31
-2.7701 -11.0303 -1.37814 0.32
-2.73311 -11.0364 -1.37714 0.31
-2.69613 -11.0434 -1.37714 0.32
-2.62798 -10.9646 -1.36311 0.29
-2.62618 -11.0686 -1.37713 0.32
-2.60919 -11.0746 -1.37713 0.31
-2.57019 -11.0757 -1.37512 0.35
-2.46784 -10.8939 -1.34708 0.21
-2.49923 -11.0968 -1.37412 0.3
-2.46928 -11.1239 -1.37712 0.33
-2.42525 -11.1089 -1.37311 0.26
-2.39229 -11.127 -1.37411 0.32
-2.12798 -10.4445 -1.27496 0.27
-2.32926 -11.1101 -1.36909 0.29
-2.29629 -11.1292 -1.37009 0.29
-2.25829 -11.1293 -1.36809 0.32
-2.22131 -11.1373 -1.36808 0.3
-2.18331 -11.1384 -1.36608 0.3
-2.15135 -11.1575 -1.36708 0.32
-2.11335 -11.1586 -1.36607 0.31
-2.09637 -11.1686 -1.36707 0.31
-2.0634 -11.1866 -1.36807 0.32
-1.97408 -11.0148 -1.34203 0.25
-1.99143 -11.2018 -1.36706 0.31
-1.95242 -11.1969 -1.36506 0.27
-1.91342 -11.1959 -1.36305 0.17
-1.54823 -10.0497 -1.20082 0.54
-1.82823 -11.0971 -1.34702 0.21
-1.82446 -11.2181 -1.36304 0.29
-1.78949 -11.2292 -1.36304 0.31
-1.75249 -11.2312 -1.36203 0.31
-1.71852 -11.2473 -1.36303 0.31
-1.68354 -11.2564 -1.36303 0.3
-1.64453 -11.2545 -1.36102 0.31
-1.62553 -11.2535 -1.36002 0.32
-1.59156 -11.2686 -1.36102 0.32
-1.55658 -11.2776 -1.36101 0.34
-1.2183 -10.0873 -1.19378 0.26
-1.48461 -11.2918 -1.36 0.31
-1.44862 -11.3008 -1.36 0.3
-1.41365 -11.3119 -1.361 0.34
-1.39061 -11.2949 -1.35799 0.28
-1.35866 -11.317 -1.35999 0.24
-1.32166 -11.3191 -1.35899 0.27
-1.28467 -11.3222 -1.35798 0.29
-1.24565 -11.3152 -1.35597 0.3
-1.21067 -11.3243 -1.35597 0.32
-1.17469 -11.3324 -1.35597 0.32
-1.13769 -11.3344 -1.35496 0.32
-1.11667 -11.3235 -1.35296 0.32
-1.07966 -11.3216 -1.35195 0.3
-1.04267 -11.3246 -1.35095 0.31
-1.00567 -11.3227 -1.34994 0.32
-0.96564 -11.3088 -1.34693 0.3
-0.931673 -11.3258 -1.34793 0.34
-0.894668 -11.3229 -1.34693 0.32
-0.874656 -11.3169 -1.34592 0.3
-0.841698 -11.339 -1.34792 0.33
-0.801668 -11.3231 -1.34491 0.29
-0.768703 -11.3412 -1.34591 0.33
-0.729682 -11.3302 -1.34391 0.29
-0.694698 -11.3383 -1.3439 0.34
-0.657696 -11.3374 -1.3429 0.33
-0.637679 -11.3284 -1.34189 0.3
-0.603709 -11.3445 -1.34289 0.33
-0.565696 -11.3375 -1.34088 0.33
-0.530717 -11.3486 -1.34188 0.31
-0.491681 -11.3297 -1.33787 0.27
-0.457714 -11.3468 -1.33987 0.34
-0.419703 -11.3408 -1.33786 0.3
-0.383708 -11.3439 -1.33786 0.31
-0.368749 -11.3649 -1.33986 0.33
-0.33072 -11.35 -1.33785 0.29
-0.294738 -11.3591 -1.33785 0.34
-0.258742 -11.3611 -1.33784 0.29
-0.223761 -11.3712 -1.33884 0.31
-0.187755 -11.3683 -1.33784 0.3
-0.150746 -11.3633 -1.33583 0.21
0.0530216 -9.91677 -1.13857 0.46
-0.0927041 -11.3415 -1.33182 0.28
-0.0597425 -11.3615 -1.33382 0.34
-0.0237503 -11.3656 -1.33381 0.33
0.0142726 -11.3537 -1.3318 0.3
0.0482419 -11.3697 -1.3338 0.35
0.0852531 -11.3638 -1.3318 0.29
0.103245 -11.3678 -1.33279 0.33
0.137219 -11.3819 -1.33379 0.33
0.173211 -11.386 -1.33379 0.32
0.211237 -11.372 -1.33178 0.3
0.246224 -11.3791 -1.33178 0.3
0.282222 -11.3802 -1.33177 0.34
0.320256 -11.3623 -1.32876 0.3
0.337246 -11.3673 -1.32876 0.34
0.374262 -11.3594 -1.32776 0.29
0.409246 -11.3674 -1.32875 0.35
0.445259 -11.3605 -1.32675 0.29
0.480235 -11.3736 -1.32874 0.33
0.517252 -11.3646 -1.32674 0.32
0.553251 -11.3647 -1.32673 0.32
0.588238 -11.3718 -1.32673 0.31
0.607248 -11.3668 -1.32672 0.29
0.64224 -11.3709 -1.32672 0.33
0.678243 -11.369 -1.32571 0.29
0.714232 -11.375 -1.32671 0.33
0.750239 -11.3711 -1.3257 0.3
0.78419 -11.3972 -1.3287 0.34
0.820199 -11.3922 -1.3277 0.32
0.838193 -11.3953 -1.3287 0.3
0.874165 -11.4103 -1.33069 0.34
0.909164 -11.4104 -1.32969 0.33
0.946224 -11.3795 -1.32568 0.25
0.981164 -11.4105 -1.32968 0.34
1.01717 -11.4056 -1.32867 0.29
1.05316 -11.4147 -1.32967 0.33
1.07114 -11.4217 -1.33067 0.32
1.10718 -11.4028 -1.32766 0.31
1.14318 -11.4008 -1.32765 0.32
1.17917 -11.4079 -1.32865 0.33
1.21519 -11.398 -1.32764 0.31
1.25018 -11.4001 -1.32764 0.32
1.2862 -11.3911 -1.32663 0.32
1.30419 -11.3972 -1.32663 0.35
1.33857 -10.1543 -1.15943 0.3
1.37531 -11.3333 -1.31861 0.24
1.41123 -11.3774 -1.32461 0.32
1.44724 -11.3724 -1.32361 0.3
1.48323 -11.3785 -1.3246 0.3
1.51924 -11.3716 -1.3236 0.31
1.55425 -11.3636 -1.32259 0.29
1.57227 -11.3577 -1.32159 0.14
1.57479 -10.0407 -1.14438 0.57
1.63769 -11.1378 -1.29254 0.25
1.67928 -11.3509 -1.32157 0.36
1.69159 -10.6639 -1.22846 0.26
1.74458 -11.196 -1.30054 0.27
1.76826 -11.3621 -1.32356 0.35
1.80426 -11.3601 -1.32356 0.25
1.83738 -11.3012 -1.31554 0.26
1.87528 -11.3533 -1.32254 0.34
1.91127 -11.3573 -1.32354 0.33
1.94727 -11.3574 -1.32353 0.32
1.98326 -11.3635 -1.32453 0.35
1.99933 -11.3275 -1.31952 0.29
2.03337 -11.3016 -1.31651 0.31
2.00427 -10.3105 -1.18336 0.25
2.10828 -11.3517 -1.32451 0.3
2.14426 -11.3598 -1.32551 0.32
2.11688 -10.5127 -1.21138 0.31
2.21334 -11.3189 -1.32049 0.29
2.25129 -11.344 -1.32449 0.28
2.16567 -10.1038 -1.15631 0.37
2.28767 -11.1461 -1.29845 0.23
2.34129 -11.3482 -1.32648 0.35
2.36846 -11.2562 -1.31446 0.28
2.41231 -11.3373 -1.32547 0.32
2.44829 -11.3444 -1.32646 0.31
2.48333 -11.3264 -1.32445 0.32
2.49935 -11.3155 -1.32345 0.3
2.53733 -11.3275 -1.32545 0.34
2.56447 -11.2546 -1.31643 0.3
2.60046 -11.2567 -1.31743 0.3
2.62859 -11.1897 -1.30841 0.16
2.66066 -11.1558 -1.3044 0.46
2.68384 -11.0598 -1.29239 0.2
2.72745 -11.2639 -1.32041 0.3
2.6472 -10.3508 -1.19628 0.17
2.80438 -11.3001 -1.32641 0.47
2.80094 -11.0071 -1.28736 0.18
2.87441 -11.2852 -1.32539 0.29
2.91139 -11.2943 -1.32739 0.29
2.94641 -11.2833 -1.32638 0.34
2.88743 -10.7512 -1.25431 0.17
2.8543 -10.2972 -1.19324 0.46
3.03642 -11.2815 -1.32837 0.33
3.06255 -11.2136 -1.31936 0.23
3.10744 -11.2696 -1.32736 0.19
3.14146 -11.2577 -1.32735 0.5
3.02524 -10.3285 -1.20022 0.21
3.21249 -11.2458 -1.32734 0.25
3.23345 -11.2629 -1.32934 0.3
3.27045 -11.267 -1.33134 0.3
3.30151 -11.235 -1.32733 0.3
3.3385 -11.2411 -1.32932 0.31
3.25575 -10.5849 -1.24023 0.18
3.21651 -10.1879 -1.18617 0.46
3.30198 -10.464 -1.22521 0.2
3.33383 -10.5461 -1.23721 0.44
3.34505 -10.4271 -1.22119 0.35
3.47711 -10.9204 -1.29025 0.25
3.56659 -11.1935 -1.32828 0.32
3.48074 -10.5904 -1.2462 0.26
3.49692 -10.4984 -1.23418 0.23
3.49722 -10.3404 -1.21416 0.3
3.51225 -10.3274 -1.21215 0.48
3.59778 -10.5686 -1.24618 0.3
3.63773 -10.5947 -1.25118 0.33
3.59639 -10.2506 -1.20413 0.48
3.74939 -10.7769 -1.27819 0.21
3.64257 -10.1567 -1.19411 0.34
3.84915 -10.9011 -1.2972 0.23
3.75904 -10.4379 -1.23414 0.18
3.76229 -10.3059 -1.21712 0.47
3.81217 -10.37 -1.22712 0.29
3.97019 -10.8803 -1.29918 0.3
4.04588 -11.0415 -1.32219 0.26
4.04418 -10.8865 -1.30217 0.14
3.99086 -10.5304 -1.25312 0.5
4.0874 -10.7695 -1.28814 0.14
3.90588 -9.99821 -1.18105 0.54
4.19402 -10.9697 -1.31816 0.32
4.14662 -10.6537 -1.27512 0.22
4.25908 -10.9399 -1.31615 0.36
4.27225 -10.8509 -1.30513 0.29
4.32712 -10.918 -1.31513 0.33
4.33631 -10.819 -1.30312 0.28
4.27883 -10.5469 -1.26508 0.25
4.33469 -10.618 -1.27708 0.28
4.27235 -10.2749 -1.23004 0.38
4.30437 -10.266 -1.23003 0.25
4.36818 -10.3631 -1.24504 0.52
4.3694 -10.2491 -1.23002 0.19
4.42527 -10.3172 -1.24102 0.61
4.38265 -10.1171 -1.214 0.23
4.33119 -9.83603 -1.17496 0.43
4.52818 -10.3644 -1.25102 0.39
4.53933 -10.2864 -1.242 0.34
4.56539 -10.2575 -1.239 0.38
4.59244 -10.2305 -1.23699 0.46
4.63042 -10.2386 -1.23898 0.3
4.68521 -10.3507 -1.25599 0.44
4.7391 -10.4078 -1.265 0.38
4.76715 -10.3799 -1.26299 0.4
4.75244 -10.2288 -1.24297 0.41
4.68303 -9.91971 -1.19993 0.3
4.84433 -10.289 -1.25496 0.41
4.82861 -10.14 -1.23494 0.41
4.86451 -10.192 -1.24294 0.31
4.91046 -10.2201 -1.24894 0.46
4.96636 -10.2752 -1.25794 0.28
4.9755 -10.2003 -1.24893 0.46
4.99956 -10.1663 -1.24592 0.36
5.05447 -10.2174 -1.25492 0.42
5.08848 -10.2095 -1.25592 0.33
5.10449 -10.2055 -1.25591 0.36
5.13751 -10.1956 -1.25591 0.47
5.16356 -10.1696 -1.2539 0.38
5.22444 -10.2327 -1.2649 0.48
5.20771 -10.0927 -1.24588 0.34
5.12131 -9.77655 -1.20184 0.34
5.31753 -10.1869 -1.26388 0.54
5.239 -9.94077 -1.22885 0.24
5.34666 -10.12 -1.25687 0.37
5.38963 -10.1351 -1.26086 0.43
5.43459 -10.1551 -1.26486 0.36
5.46263 -10.1332 -1.26385 0.37
5.51257 -10.1643 -1.26985 0.3
5.55256 -10.1714 -1.27284 0.55
5.57463 -10.1344 -1.26984 0.39
5.56277 -10.0604 -1.25983 0.29
5.58783 -10.0324 -1.25782 0.46
5.63578 -10.0575 -1.26381 0.38
5.68273 -10.0806 -1.26881 0.41
5.69684 -10.0247 -1.2628 0.37
5.75376 -10.0688 -1.2708 0.39
5.73301 -9.93773 -1.25378 0.41
5.76196 -9.96178 -1.25778 0.48
5.77507 -9.90581 -1.25177 0.26
5.81207 -9.90588 -1.25377 0.42
5.85704 -9.92096 -1.25876 0.41
5.88109 -9.89301 -1.25675 0.37
5.94798 -9.95514 -1.26776 0.48
5.89933 -9.77005 -1.24273 0.32
5.90837 -9.74907 -1.24073 0.33
5.99019 -9.84422 -1.25673 0.37
6.00728 -9.79926 -1.25172 0.4
6.02037 -9.74828 -1.24671 0.36
6.04144 -9.71432 -1.2437 0.39
6.0635 -9.68137 -1.2407 0.34
6.13338 -9.7465 -1.2527 0.43
6.13843 -9.71951 -1.24969 0.36
6.1585 -9.68355 -1.24668 0.34
6.26425 -9.81675 -1.26969 0.47
6.22255 -9.65867 -1.24767 0.32
6.23365 -9.60569 -1.24166 0.38
6.35434 -9.76692 -1.26867 0.37
6.34253 -9.6679 -1.25665 0.38
6.30175 -9.55282 -1.23964 0.43
6.38359 -9.63798 -1.25564 0.32
6.4186 -9.63005 -1.25664 0.34
6.50842 -9.72422 -1.27364 0.43
6.50856 -9.65222 -1.26463 0.34
6.54158 -9.64128 -1.26562 0.38
6.52478 -9.53825 -1.25261 0.4
6.57873 -9.56736 -1.25961 0.36
6.54192 -9.46329 -1.24459 0.37
6.54903 -9.4073 -1.23859 0.43
6.63786 -9.49647 -1.25459 0.36
6.70676 -9.5486 -1.26559 0.42
6.7647 -9.58171 -1.27258 0.36
6.7738 -9.52873 -1.26757 0.44
6.81879 -9.53782 -1.27157 0.35
6.82683 -9.51683 -1.26956 0.38
6.82795 -9.44984 -1.26155 0.38
6.88789 -9.48395 -1.26955 0.3
6.9249 -9.47802 -1.27154 0.57
6.92603 -9.41303 -1.26453 0.29
6.98098 -9.43813 -1.27053 0.45
7.03294 -9.45723 -1.27653 0.44
7.02403 -9.41022 -1.27052 0.36
7.04011 -9.37025 -1.26751 0.38
7.06715 -9.3473 -1.2665 0.39
7.13806 -9.39643 -1.2765 0.41
7.14716 -9.34645 -1.27149 0.34
7.16722 -9.31249 -1.26948 0.46
7.1504 -9.22046 -1.25747 0.34
7.23022 -9.31561 -1.27448 0.45
7.24629 -9.27664 -1.27147 0.31
7.27433 -9.2567 -1.27046 0.47
7.29639 -9.22674 -1.26845 0.39
7.38824 -9.30392 -1.28445 0.37
7.4103 -9.27496 -1.28244 0.31
7.44432 -9.26203 -1.28344 0.46
7.3666 -9.11388 -1.26142 0.32
7.4794 -9.22009 -1.28143 0.39
7.40772 -9.05196 -1.25741 0.39
7.3869 -8.95992 -1.2454 0.36
7.56751 -9.16526 -1.2824 0.34
7.61749 -9.17736 -1.2874 0.37
7.62658 -9.12838 -1.28239 0.4
7.66659 -9.12445 -1.28538 0.44
7.71352 -9.16154 -1.29238 0.28
7.74156 -9.1396 -1.29238 0.5
7.72173 -9.05156 -1.28137 0.31
7.81559 -9.12374 -1.29636 0.45
7.83366 -9.08878 -1.29436 0.37
7.84076 -9.03779 -1.28935 0.41
7.87478 -9.02585 -1.29034 0.36
7.86486 -8.98184 -1.28433 0.39
7.94975 -9.04 -1.29833 0.48
8.01071 -9.06212 -1.30533 0.31
8.01581 -9.01113 -1.30032 0.45
8.05682 -9.0052 -1.30231 0.33
8.08087 -8.98025 -1.3023 0.45
8.11689 -8.96832 -1.3033 0.39
8.10997 -8.93031 -1.29929 0.37
8.18988 -8.97746 -1.31029 0.35
8.20894 -8.9425 -1.30828 0.44
8.19808 -8.87148 -1.29927 0.41
8.21315 -8.83451 -1.29726 0.37
8.18433 -8.74045 -1.28425 0.36
8.17745 -8.67544 -1.27724 0.46
8.25133 -8.74058 -1.29024 0.34
8.36616 -8.8278 -1.30924 0.47
8.38822 -8.79984 -1.30823 0.35
8.42624 -8.78992 -1.31023 0.44
8.47523 -8.79401 -1.31422 0.36
8.50228 -8.77106 -1.31421 0.43
8.54928 -8.77115 -1.31821 0.34
8.57632 -8.74921 -1.3182 0.45
8.59034 -8.73723 -1.31819 0.37
8.59045 -8.68323 -1.31319 0.44
8.63944 -8.68633 -1.31718 0.41
8.70839 -8.71146 -1.32617 0.39
8.73244 -8.68551 -1.32517 0.41
8.79641 -8.70363 -1.33316 0.28
8.81846 -8.67467 -1.33215 0.46
8.83249 -8.6627 -1.33215 0.42
8.87749 -8.65978 -1.33614 0.45
8.90554 -8.63784 -1.33613 0.41
8.96152 -8.64695 -1.34213 0.4
9.0205 -8.65806 -1.34812 0.38
9.04156 -8.6271 -1.34711 0.4
9.06257 -8.62414 -1.34811 0.35
9.10458 -8.61522 -1.3511 0.45
9.1436 -8.6043 -1.3541 0.39
9.17564 -8.58536 -1.35509 0.43
9.22864 -8.58846 -1.36008 0.3
9.25668 -8.56551 -1.36007 0.47
9.2997 -8.5576 -1.36307 0.32
9.34171 -8.54868 -1.36606 0.41
9.3757 -8.55774 -1.37006 0.38
9.40175 -8.53279 -1.37005 0.37
9.46073 -8.5409 -1.37604 0.36
9.49676 -8.52497 -1.37803 0.37
9.51782 -8.49401 -1.37703 0.4
9.56683 -8.49111 -1.38102 0.34
9.59388 -8.46516 -1.38101 0.41
9.62088 -8.46621 -1.38401 0.39
9.66489 -8.4583 -1.388 0.4
9.70292 -8.44337 -1.38999 0.36
9.73696 -8.42444 -1.39098 0.36
9.76201 -8.39648 -1.39098 0.42
9.77908 -8.36152 -1.38897 0.36
9.78118 -8.31152 -1.38496 0.4
9.73232 -8.23743 -1.37296 0.28
9.66055 -8.11529 -1.35395 0.29
9.67462 -8.07832 -1.35194 0.32
9.70366 -8.05638 -1.35293 0.29
9.75167 -8.05147 -1.35692 0.32
9.80068 -8.04756 -1.36192 0.32
9.8457 -8.03965 -1.36491 0.29
9.8987 -8.03875 -1.3709 0.36
9.94167 -8.05383 -1.3759 0.28
9.99567 -8.05394 -1.38089 0.36
10.0547 -8.05705 -1.38788 0.34
10.1037 -8.05114 -1.39188 0.35
10.1567 -8.04924 -1.39687 0.33
10.2127 -8.04935 -1.40286 0.31
10.2517 -8.05943 -1.40686 0.31
10.3097 -8.06054 -1.41285 0.31
10.3687 -8.06265 -1.41884 0.31
10.4267 -8.06276 -1.42483 0.33
10.4787 -8.05786 -1.42982 0.31
10.5447 -8.06499 -1.43682 0.34
10.6037 -8.0661 -1.44281 0.33
10.6637 -8.06622 -1.4498 0.28
10.7046 -8.07629 -1.4548 0.34
10.7616 -8.0744 -1.45979 0.3
10.8157 -8.06851 -1.46478 0.29
10.8607 -8.05559 -1.46877 0.36
10.9287 -8.06172 -1.47576 0.32
10.9787 -8.05182 -1.48075 0.35
11.0377 -8.04893 -1.48574 0.32
11.0897 -8.06703 -1.49274 0.29
11.1686 -8.08018 -1.50273 0.3
11.1897 -8.04522 -1.50172 0.46
11.1638 -7.97318 -1.49271 0.3
11.2348 -7.97931 -1.50071 0.36
11.2339 -7.92731 -1.4967 0.32
11.3229 -7.94648 -1.50769 0
10.5361 -7.29898 -1.3697 0.12
10.5851 -7.29107 -1.37469 0.29
10.6461 -7.29119 -1.38068 0.23
10.7091 -7.29331 -1.38767 0.26
10.7672 -7.29042 -1.39366 0.3
10.8292 -7.29154 -1.40065 0.3
10.9021 -7.29968 -1.40865 0.29
10.9551 -7.31578 -1.41564 0.29
11.0301 -7.32493 -1.42463 0.26
11.1021 -7.33206 -1.43262 0.29
11.1661 -7.33119 -1.43961 0.3
11.2291 -7.33031 -1.4466 0.29
11.2911 -7.32743 -1.4526 0.3
11.3541 -7.32555 -1.45959 0.31
11.4041 -7.33764 -1.46558 0.3
11.4621 -7.33175 -1.47157 0.3
11.5451 -7.34191 -1.48156 0.3
11.6011 -7.33402 -1.48755 0.3
11.6361 -7.31009 -1.48954 0.3
11.6882 -7.29819 -1.49454 0.26
11.7322 -7.28027 -1.49753 0.25
11.7222 -7.24925 -1.49452 0.27
11.7713 -7.23535 -1.49851 0.27
11.8513 -7.2415 -1.5075 0.25
11.9472 -7.25868 -1.51949 0.23
11.9943 -7.24177 -1.52348 0.38
12.0503 -7.23088 -1.52947 0.36
12.0734 -7.19693 -1.52947 0.21
12.1384 -7.19205 -1.53546 0.4
12.0885 -7.13495 -1.52645 0.26
12.1555 -7.13008 -1.53344 0.35
12.1646 -7.0881 -1.53144 0.3
12.1886 -7.05515 -1.53143 0.29
12.2187 -7.02621 -1.53242 0.21
12.2547 -7.00027 -1.53441 0.37
12.2578 -6.95428 -1.5314 0.37
12.2888 -6.95034 -1.5354 0.27
12.3439 -6.93645 -1.54039 0.32
12.326 -6.87641 -1.53438 0.25
12.349 -6.84346 -1.53437 0.27
12.3691 -6.8075 -1.53436 0.33
12.3812 -6.76752 -1.53236 0.37
12.3603 -6.70748 -1.52635 0.28
12.4033 -6.70956 -1.53134 0.29
12.4214 -6.6726 -1.53033 0.33
12.4364 -6.63563 -1.52933 0.3
12.4525 -6.59766 -1.52932 0.28
12.4476 -6.54765 -1.52531 0.2
12.4887 -6.52473 -1.5283 0.46
12.5297 -6.50181 -1.53129 0.23
12.5897 -6.51292 -1.53929 0
11.437 -5.80472 -1.35634 0.1
11.502 -5.79984 -1.36433 0.28
11.57 -5.79597 -1.37132 0.19
11.643 -5.79511 -1.38031 0.38
11.729 -5.80028 -1.39029 0.23
11.825 -5.81046 -1.40228 0.18
11.913 -5.83763 -1.41427 0.39
11.99 -5.83678 -1.42326 0.25
12.071 -5.83693 -1.43325 0.24
12.128 -5.82404 -1.43924 0.17
12.227 -5.83323 -1.45123 0.43
12.301 -5.82837 -1.46022 0.25
12.384 -5.82853 -1.47021 0.25
12.448 -5.83965 -1.4782 0.18
12.454 -5.79767 -1.47619 0.43
12.4591 -5.75668 -1.47419 0.25
12.5042 -5.73576 -1.47818 0.25
12.6351 -5.75801 -1.49516 0.2
12.6762 -5.73409 -1.49915 0.33
12.7312 -5.7172 -1.50414 0.33
12.7403 -5.67722 -1.50313 0.29
12.7583 -5.66325 -1.50413 0.31
12.8094 -5.64435 -1.51012 0.31
12.8254 -5.60738 -1.50911 0.2
12.7446 -5.52422 -1.49511 0.38
12.8336 -5.52239 -1.5051 0.27
12.8706 -5.49547 -1.50809 0.29
12.8158 -5.42536 -1.49808 0.27
12.7619 -5.37826 -1.48808 0.23
12.7679 -5.33727 -1.48708 0.29
12.6771 -5.2511 -1.47108 0.31
12.6532 -5.19805 -1.46507 0.32
12.6733 -5.16409 -1.46506 0.25
12.7093 -5.13716 -1.46805 0.31
12.7094 -5.09416 -1.46605 0.31
12.7594 -5.09426 -1.47204 0.26
12.7935 -5.06732 -1.47503 0.45
12.7995 -5.02733 -1.47302 0.21
12.8226 -4.99438 -1.47402 0.34
12.8547 -4.96544 -1.47701 0.38
12.9527 -4.96363 -1.48899 0.31
12.9008 -4.89853 -1.47899 0.37
12.8659 -4.86346 -1.47299 0.18
13.1647 -4.94503 -1.51396 0.37
13.2098 -4.92012 -1.51795 0.3
13.2688 -4.90023 -1.52494 0.46
13.2719 -4.85824 -1.52293 0.23
13.3419 -4.84237 -1.53092 0.46
13.4069 -4.8245 -1.53791 0.3
13.407 -4.7815 -1.5359 0.31
13.461 -4.7806 -1.54289 0.31
13.4831 -4.74464 -1.54388 0.36
13.5421 -4.72376 -1.54987 0.35
13.5652 -4.6888 -1.55086 0.26
13.6532 -4.67797 -1.56185 0
12.688 -4.27212 -1.42092 0.04
12.783 -4.26731 -1.43291 0.12
12.881 -4.28249 -1.4459 0.34
13.01 -4.28874 -1.46188 0.24
13.1629 -4.30303 -1.48186 0.29
13.2939 -4.30728 -1.49884 0.27
13.4089 -4.3065 -1.51383 0.27
13.5449 -4.31176 -1.53081 0.26
13.639 -4.30094 -1.54279 0.21
13.7139 -4.30509 -1.55178 0.4
13.787 -4.28723 -1.56077 0.21
13.86 -4.26837 -1.56876 0.2
13.8511 -4.22135 -1.56575 0.41
13.8942 -4.19243 -1.56974 0.31
13.8893 -4.14642 -1.56773 0.24
13.9373 -4.11851 -1.57272 0.45
13.9973 -4.11563 -1.57971 0.25
14.0764 -4.09778 -1.5897 0.25
14.0584 -4.04775 -1.58469 0.27
14.1605 -4.03594 -1.59768 0.23
14.1596 -3.99094 -1.59567 0.37
14.1606 -3.94794 -1.59466 0.24
14.1937 -3.914 -1.59665 0.33
14.2097 -3.89604 -1.59865 0.41
14.2098 -3.85304 -1.59664 0.28
14.2339 -3.81508 -1.59863 0.27
14.247 -3.77511 -1.59862 0.4
14.2611 -3.73513 -1.59862 0.36
14.2631 -3.69214 -1.59761 0.32
14.2562 -3.64613 -1.5946 0.25
14.2783 -3.63117 -1.5976 0.39
14.2484 -3.57911 -1.59159 0.29
14.3084 -3.55123 -1.59858 0.37
14.3005 -3.50621 -1.59558 0.23
14.3656 -3.47933 -1.60356 0.39
14.3356 -3.42828 -1.59756 0.3
14.2858 -3.37118 -1.58856 0.38
14.3538 -3.34531 -1.59654 0.26
14.3738 -3.32835 -1.59954 0.31
14.3879 -3.28838 -1.59953 0.24
14.333 -3.23127 -1.59053 0.3
14.3571 -3.19432 -1.59252 0.25
14.3322 -3.14527 -1.58751 0
14.3713 -3.11135 -1.5915 0
13.1179 -2.77495 -1.41663 0.13
13.2579 -2.78822 -1.43561 0.19
13.5288 -2.81074 -1.47157 0.18
13.7348 -2.81713 -1.49955 0.41
13.9108 -2.81447 -1.52252 0.25
14.0069 -2.79465 -1.5345 0.24
13.9979 -2.75063 -1.5315 0.3
13.995 -2.70863 -1.53049 0.32
14.156 -2.72194 -1.55147 0.24
14.1571 -2.67994 -1.55047 0.25
14.2371 -2.65409 -1.56045 0.28
14.2352 -2.61209 -1.55944 0.39
14.1583 -2.55494 -1.54745 0.28
14.1834 -2.51799 -1.54944 0.36
14.2105 -2.48104 -1.55243 0.3
14.1995 -2.45802 -1.55042 0.39
14.1486 -2.40692 -1.54242 0.26
14.2147 -2.37705 -1.55041 0.43
14.0908 -2.31381 -1.53242 0.32
13.9499 -2.24754 -1.51243 0.29
13.863 -2.19138 -1.49943 0.3
13.8881 -2.15543 -1.50142 0.32
13.8931 -2.13544 -1.50242 0.38
13.9312 -2.10151 -1.50641 0.38
13.9063 -2.05646 -1.5024 0.35
13.9284 -2.0195 -1.50439 0.27
13.9014 -1.97545 -1.49939 0.41
13.9135 -1.93647 -1.50038 0.28
13.9196 -1.89749 -1.50038 0.39
13.8787 -1.85041 -1.49437 0.32
13.8497 -1.82635 -1.48937 0.24
13.8768 -1.79041 -1.49237 0.36
13.8789 -1.75041 -1.49236 0.31
13.9979 -1.72664 -1.50734 0.34
14.2939 -1.7252 -1.5473 0.29
14.5829 -1.72075 -1.58526 0.28
14.741 -1.69806 -1.60623 0.31
14.746 -1.67707 -1.60623 0.3
14.7591 -1.63609 -1.60722 0.33
14.7422 -1.59206 -1.60421 0.3
14.6213 -1.53483 -1.58722 0.26
14.6044 -1.4908 -1.58422 0.32
14.5895 -1.44777 -1.58221 0.28
14.5916 -1.40577 -1.58221 0.31
14.5646 -1.36072 -1.5772 0.31
14.5647 -1.33972 -1.5772 0.29
14.5668 -1.29772 -1.57719 0.29
14.5868 -1.25776 -1.57918 0.29
