ply
format ascii 1.0
element vertex 1596
property double x
property double y
property double z
property float intensity
end_header
-27.4347 38.7948 0.709976 0
-26.3371 37.0736 0.689869 0
-26.3276 36.8206 0.687829 0
-26.9196 37.3618 0.695824 0
-27.706 38.1503 0.706829 0
-28.0536 38.355 0.710808 0
-27.4456 37.3198 0.698735 0
-27.5309 37.188 0.6977 0
-27.2887 36.7575 0.692668 0
-41.6514 54.8056 0.926347 0
-27.2528 36.2394 0.68859 0
-27.8537 36.7626 0.696581 0
-27.3035 35.8395 0.685517 0
-28.2537 36.7894 0.698522 0
-28.5155 36.8759 0.701495 0
-30.2456 38.8843 0.72855 0
-44.0391 55.4753 0.947081 0
-44.1366 55.2405 0.945027 0
-31.2078 39.3032 0.737467 0
-44.7186 55.2357 0.948935 0
-45.0425 55.2693 0.95089 0
-28.8776 35.8026 0.695264 0
-28.6665 35.3282 0.69022 0
-26.9487 33.2038 0.662144 0
-27.1516 33.2302 0.664117 0
-26.8847 32.7107 0.658074 0.07
-26.915 32.5388 0.657042 0.08
-27.0331 32.468 0.657012 0
-27.2191 32.4744 0.657983 0
-27.2864 32.3455 0.657952 0
-27.1968 32.1423 0.655933 0
-27.4965 32.2739 0.658907 0
-27.5837 32.1691 0.657877 0
-27.659 32.0492 0.657845 0
-27.1544 31.2942 0.648802 0
-27.3155 31.2726 0.649773 0
-27.5085 31.2849 0.650745 0
-27.7761 31.4765 0.654734 0
-29.3142 32.9275 0.675728 0
-27.7649 31.0704 0.65167 0
-27.7832 30.8945 0.649638 0
-27.6389 30.5492 0.646605 0
-27.76 30.4844 0.646575 0
-28.3113 30.8665 0.653551 0
-28.3963 30.8577 0.653536 0
-27.7051 29.9533 0.642498 0
-27.7334 29.7944 0.641467 0
-27.6719 29.5453 0.639436 0
-27.7371 29.4264 0.638407 0
-27.8003 29.3055 0.638377 0
-27.9254 29.2468 0.638348 0
-32.7664 33.8612 0.706338 0
-32.8056 33.7933 0.706321 0
-31.6921 32.4891 0.689284 0
-32.8064 33.3723 0.703252 0
-28.3722 28.8646 0.639216 0
-28.3865 28.6977 0.638187 0
-28.5376 28.662 0.639157 0
-33.3799 33.0894 0.705116 0
-32.2404 31.8052 0.688087 0
-33.3157 32.7183 0.702066 0
-33.33 32.5273 0.701033 0
-33.555 32.5328 0.701999 0
-29.2392 28.3373 0.641994 0
-35.2009 33.637 0.72192 0
-27.7935 26.6625 0.618949 0
-35.585 33.5638 0.724848 0
-32.6195 30.7759 0.68286 0
-33.9619 31.5886 0.698781 0
-36.3152 33.4782 0.728719 0
-29.6341 27.3751 0.637776 0.08
-29.6364 27.2041 0.636748 0
-29.8045 27.1784 0.637717 0.09
-29.61 26.9241 0.634706 0
-29.7371 26.8633 0.634677 0
-30.5012 27.3488 0.644636 0
-30.3308 27.0305 0.640611 0
-30.379 26.8996 0.640582 0
-30.1647 26.5491 0.636558 0.11
-30.182 26.3942 0.635531 0
-30.3052 26.3284 0.635501 0
-30.3862 26.3116 0.636485 0
-30.4195 26.1716 0.635457 0
-30.4817 26.0548 0.635428 0
-30.6208 26.001 0.636398 0
-30.9127 26.0706 0.638363 0
-31.3952 26.2895 0.644323 0
-30.3512 25.2905 0.629325 0
-30.2905 25.1604 0.628313 0
-30.3736 25.0645 0.628284 0
-32.2521 26.3752 0.651203 0
-34.6461 27.8869 0.679073 0
-30.8042 24.7544 0.629166 0
-32.8305 26.1404 0.654074 0
-32.8487 26.0704 0.654059 0
-31.1329 24.443 0.630064 0.1
-30.6279 23.907 0.623056 0.23
-30.5214 23.6718 0.620035 0.26
-30.6145 23.586 0.621006 0.24
-30.6758 23.4761 0.620979 0
-31.1234 23.647 0.624936 0
-31.1965 23.6212 0.625921 0.08
-31.0929 23.392 0.6229 0
-31.3489 23.4195 0.625864 0
-31.9174 23.6686 0.631815 0
-32.6796 24.0491 0.639758 0.06
-16.8888 12.6961 0.444391 0.74
-16.881 12.6061 0.443378 0
-33.2852 23.7502 0.643614 0
-33.4413 23.6965 0.644581 0
-33.4357 23.5325 0.643555 0
-33.5878 23.4758 0.644522 0
-33.4632 23.2336 0.641502 0
-33.4386 23.0605 0.640478 0
-33.6225 23.1029 0.642456 0
-31.5914 21.6149 0.616533 0.07
-31.7025 21.5401 0.617503 0
-31.7987 21.4543 0.617474 0
-31.9908 21.4297 0.61944 0
-32.1099 21.3589 0.61941 0
-32.3998 21.3945 0.62237 0
-32.8564 21.6084 0.627333 0
-32.4362 21.1946 0.621332 0.08
-31.5246 20.4808 0.610359 0.09
-31.5988 20.3829 0.610331 0
-32.3202 20.6834 0.618267 0
-32.755 20.8012 0.622218 0
-33.0559 20.8368 0.625177 0
-31.8805 20.0555 0.611234 0.1
-31.7769 19.8513 0.609217 0
-31.882 19.7725 0.609188 0
-32.4237 19.9506 0.615132 0
-32.9274 20.1025 0.620078 0
-32.1695 19.5181 0.610101 0
-33.4743 20.1296 0.624996 0
-33.5685 20.0388 0.624967 0
-33.6106 19.9899 0.624952 0
-33.7148 19.9031 0.625922 0
-33.765 19.7862 0.625895 0
-33.8412 19.6833 0.625866 0
-33.8395 19.5373 0.624843 0
-33.8477 19.3983 0.623819 0
-38.2763 21.672 0.674493 0
-38.3923 21.6542 0.675472 0
-38.4556 21.5264 0.675441 0
-37.5369 20.8736 0.663479 0
-38.643 21.3037 0.675376 0
-39.3816 21.5332 0.683297 0
-39.4618 21.4113 0.683265 0
-39.3652 21.1981 0.681245 0.1
-32.5954 17.5449 0.603714 0.12
-32.4287 17.3916 0.601715 0
-34.5099 18.3176 0.624539 0
-34.5901 18.2168 0.62451 0
-51.8345 26.7296 0.818187 0
-52.4377 26.6107 0.823073 0
-56.689 28.4841 0.86971 0
-56.2986 28.1803 0.864722 0
-34.9008 17.3134 0.623315 0.41
-34.9401 17.1925 0.623289 0.25
-34.9294 17.0475 0.622267 0.26
-34.9446 16.9155 0.622243 0.19
-34.9218 16.8364 0.621234 0.18
-34.916 16.6954 0.621212 0.18
-34.9323 16.5645 0.620188 0.16
-34.9206 16.4214 0.620167 0.23
-34.9248 16.2864 0.619144 0.26
-34.9091 16.1434 0.618123 0.11
-34.9124 16.0084 0.618101 0.16
-34.9005 15.9354 0.617091 0.12
-34.8828 15.7914 0.61707 0.16
-34.8291 15.6333 0.616053 0.18
-34.8694 15.5153 0.615027 0.29
-34.9506 15.4155 0.615998 0
-59.106 25.4258 0.877834 0
-59.3563 25.3063 0.879775 0
-43.7315 16.9987 0.702878 0.09
-43.7848 16.8568 0.702846 0
-43.7601 16.6867 0.701823 0
-43.7954 16.5388 0.701793 0
-43.7656 16.4468 0.701783 0
-43.7759 16.2908 0.700756 0
-43.7552 16.1227 0.699732 0
-43.7585 15.9647 0.699705 0
-43.7798 15.8128 0.699677 0
-43.7721 15.6508 0.698652 0
-39.4303 14.0053 0.652066 0
-39.4096 13.8552 0.651045 0
-43.7229 15.2387 0.696593 0.15
-43.7802 15.0998 0.696562 0
-74.7917 18.4535 1.00324 0
-74.7832 18.1985 1.0022 0
-74.9467 17.9848 1.00314 0
-48.8508 -9.70434 0.727736 0
-70.158 -14.8856 0.94455 0
-70.0464 -15.0969 0.944533 0
-70.196 -15.3636 0.946467 0
-70.2355 -15.6075 0.947421 0
-60.3746 -13.6578 0.847285 0
-60.483 -13.8856 0.849231 0
-60.4664 -14.0856 0.849201 0
-59.6062 -13.9903 0.840352 0
-59.5896 -14.1883 0.841322 0
-59.537 -14.3774 0.8403 0
-59.3653 -14.5388 0.8393 0
-59.0195 -14.6564 0.836335 0
-58.7578 -14.793 0.834354 0
-58.5091 -14.9314 0.832371 0
-58.2281 -14.961 0.82941 0
-57.12 -14.8772 0.818598 0
-56.5951 -14.9372 0.81367 0
-56.0792 -14.9972 0.808741 0
-55.1801 -14.952 0.79989 0
-54.5822 -14.9811 0.793979 0
-53.4079 -14.8514 0.783184 0
-52.9018 -14.8054 0.778271 0
-52.2578 -14.8107 0.771371 0
-51.0165 -14.6441 0.759593 0
-50.0723 -14.554 0.749756 0
-49.5764 -14.5859 0.745829 0
-49.3476 -14.6934 0.743847 0
-48.4354 -14.5982 0.735006 0
-47.6321 -14.4457 0.726157 0
-47.3913 -14.5412 0.724179 0
-46.9243 -14.5671 0.720248 0
-46.3883 -14.5692 0.715332 0
-46.0234 -14.6209 0.711381 0
-45.0612 -14.4828 0.702554 0
-44.3971 -14.4331 0.695666 0
-43.9571 -14.4509 0.691733 0
-43.3539 -14.3351 0.685846 0
-43.2131 -14.4454 0.68485 0
-42.8872 -14.493 0.681894 0
-42.218 -14.4253 0.67501 0
-41.663 -14.3914 0.670102 0
-41.1779 -14.3774 0.665181 0
-40.6459 -14.3444 0.660269 0
-39.8655 -14.1499 0.652424 0.07
-39.7377 -14.2502 0.651427 0.09
-39.4278 -14.2868 0.64847 0.08
-38.9347 -14.2558 0.643552 0.13
-38.6558 -14.2983 0.641589 0.1
-38.2988 -14.311 0.637643 0
-37.7517 -14.2531 0.632738 0.12
-37.5268 -14.3095 0.630765 0.09
-37.1777 -14.2492 0.626829 0.15
-36.5875 -14.1664 0.621935 0.09
-36.4687 -14.2576 0.620939 0
-36.1227 -14.2613 0.617993 0.13
-35.6656 -14.2202 0.613071 0.16
-35.4877 -14.2855 0.612088 0.09
-35.0256 -14.2374 0.607169 0.14
-34.9197 -14.2616 0.606182 0.23
-34.5757 -14.2563 0.603236 0.19
-34.1946 -14.235 0.5993 0.23
-33.8896 -14.2406 0.596347 0.11
-33.6857 -14.287 0.595371 0.16
-33.5649 -14.3653 0.594377 0.12
-32.9697 -14.2464 0.58849 0.15
-32.8016 -14.2398 0.586517 0.27
-32.6177 -14.2881 0.585538 0.2
-32.2877 -14.2738 0.582593 0.18
-31.9797 -14.2664 0.579642 0.13
-31.6907 -14.2659 0.576687 0.17
-31.3857 -14.2565 0.573737 0.22
-30.9545 -14.1894 0.569815 0.18
-30.6495 -14.175 0.566866 0.22
-30.4855 -14.1623 0.564894 0.18
-30.2895 -14.1937 0.563919 0.34
-30.0806 -14.2191 0.561948 0.19
-29.6795 -14.1549 0.558021 0.33
-29.5546 -14.2151 0.557031 0.19
-29.2575 -14.1957 0.554081 0.27
-28.9995 -14.1912 0.552122 0.17
-28.7274 -14.1217 0.549176 0.32
-28.2312 -14.0017 0.544273 0.18
-28.1563 -14.0799 0.544272 0.35
-27.8703 -14.0564 0.541321 0.22
-27.7544 -14.1136 0.54033 0.21
-27.5464 -14.1251 0.538361 0.37
-27.2293 -14.0807 0.535418 0.19
-27.0844 -14.121 0.534434 0.32
-26.9063 -14.0873 0.532467 0.22
-26.5902 -14.0399 0.529525 0.22
-26.3232 -14.0145 0.527571 0.4
-26.1082 -14.0139 0.525605 0.21
-25.9753 -14.0541 0.524619 0.16
-25.7302 -14.0356 0.52266 0.44
-25.4912 -14.0191 0.519701 0.21
-25.3241 -13.9854 0.518732 0.25
-25.2603 -14.0585 0.51773 0.2
-25.0783 -14.0689 0.516757 0.27
-24.8292 -14.0414 0.514801 0.31
-24.43 -13.9322 0.509881 0.21
-24.4142 -14.0282 0.510868 0.19
-24.2512 -14.0435 0.508891 0.42
-24.0331 -13.9749 0.506936 0.22
-23.8331 -13.9683 0.504969 0.3
-23.6231 -13.9547 0.503004 0.2
-23.5201 -13.9999 0.503013 0.45
-23.193 -13.9166 0.499078 0.22
-23.031 -13.9269 0.498102 0.27
-22.827 -13.9113 0.496136 0.24
-22.9182 -14.0141 0.498105 0.36
-22.4819 -13.862 0.493198 0.23
-22.3479 -13.8842 0.492216 0.27
-22.4332 -14.0351 0.493178 0.18
-22.2111 -14.0035 0.491218 0.48
-21.9831 -13.9669 0.489259 0.23
-21.8021 -13.9573 0.488289 0.29
-21.7242 -14.0095 0.487293 0.24
-21.5581 -13.9588 0.485328 0.29
-21.4461 -13.988 0.48534 0.28
-21.2631 -13.9734 0.483371 0.27
-21.063 -13.9477 0.481407 0.3
-21.0021 -14.0069 0.481407 0.25
-20.8712 -14.0231 0.480425 0.29
-20.6801 -13.9995 0.478459 0.29
-20.3969 -13.8671 0.475525 0.31
-20.2609 -13.8753 0.474545 0.27
-20.222 -13.9464 0.474539 0.24
-20.1531 -13.9985 0.474542 0.29
-19.8149 -13.8722 0.470615 0.31
-19.735 -13.9143 0.470621 0.23
-19.4978 -13.8528 0.467668 0.3
-19.3648 -13.8581 0.466688 0.24
-19.377 -13.914 0.467677 0.36
-19.289 -13.9482 0.466685 0.28
-19.138 -13.9405 0.46571 0.35
-18.9399 -13.8989 0.463748 0.26
-18.7268 -13.8463 0.46179 0.3
-18.6289 -13.8715 0.460801 0.3
-18.5229 -13.8907 0.459815 0.32
-18.3508 -13.8161 0.458854 0.33
-18.2057 -13.8063 0.456878 0.32
-18.0878 -13.8146 0.455896 0.31
-18.0018 -13.8447 0.455904 0.3
-17.9519 -13.9008 0.455903 0.32
-17.876 -13.938 0.454909 0.3
-17.8061 -13.9791 0.454913 0.25
-17.668 -13.9244 0.453944 0.33
-17.4568 -13.8608 0.450987 0.34
-17.439 -13.9388 0.451977 0.25
-17.3631 -13.974 0.450983 0.34
-17.2601 -13.9882 0.450997 0.33
-17.1551 -14.0004 0.450012 0.29
-16.9119 -13.9069 0.447065 0.26
-16.8109 -13.8751 0.446086 0.34
-16.5787 -13.7865 0.444137 0.34
-16.67 -13.9473 0.446096 0.26
-16.3527 -13.791 0.442172 0.3
-16.3128 -13.849 0.442168 0.28
-16.2048 -13.8533 0.441185 0.41
-16.1249 -13.8804 0.441193 0.35
-16.1701 -14.0063 0.442165 0.27
-15.9599 -13.8827 0.440218 0.32
-15.8739 -13.9029 0.439229 0.37
-15.7639 -13.9021 0.438246 0.25
-15.4706 -13.7527 0.435316 0.36
-15.4448 -13.8187 0.43531 0.29
-15.4089 -13.8778 0.435306 0.33
-15.3279 -13.9 0.435315 0.38
-15.2939 -13.916 0.435317 0.3
-15.1589 -13.8913 0.433343 0.32
-15.141 -13.9643 0.434334 0.19
-14.8958 -13.8448 0.431392 0.23
-14.7357 -13.7961 0.430425 0.28
-14.6648 -13.8223 0.429431 0.28
-14.5808 -13.8374 0.429442 0.36
-14.5027 -13.8136 0.428458 0.29
-14.4128 -13.8228 0.427471 0.33
-14.3498 -13.8549 0.427476 0.37
-14.2689 -13.871 0.426486 0.27
-14.1598 -13.8613 0.426504 0.46
-14.1149 -13.9084 0.426504 0.3
-14.077 -13.9624 0.426501 0.27
-13.9709 -13.9106 0.424526 0.32
-13.8208 -13.8609 0.423558 0.27
-13.5796 -13.7274 0.420617 0.3
-13.6529 -13.8813 0.422581 0.26
-13.5318 -13.8565 0.421604 0.42
-13.4569 -13.8746 0.420612 0.23
-13.3088 -13.8219 0.419644 0.32
-13.2398 -13.8431 0.419652 0.41
-13.1768 -13.8272 0.418664 0.25
-13.1479 -13.8872 0.418659 0.35
-13.0639 -13.8934 0.418671 0.36
-12.9829 -13.9026 0.417682 0.3
-12.8338 -13.8439 0.416715 0.2
-12.0144 -13.1255 0.405961 0.29
-11.9434 -13.1376 0.40497 0.32
-11.9164 -13.1527 0.404972 0.38
-11.8695 -13.1887 0.404973 0.37
-11.8386 -13.2408 0.404969 0.39
-11.8328 -13.3188 0.405958 0.26
-12.1666 -13.7432 0.410836 0.41
-12.2269 -13.891 0.412803 0.24
-12.1499 -13.8992 0.411814 0.28
-12.0919 -13.8833 0.411825 0.28
-11.9878 -13.8635 0.410845 0.21
-11.8357 -13.7908 0.408881 0.41
-11.7787 -13.8179 0.408885 0.33
-11.7529 -13.878 0.408879 0.26
-11.6478 -13.8532 0.4079 0.23
-11.5057 -13.7885 0.406933 0.24
-11.3806 -13.7407 0.40596 0.4
-11.3396 -13.7388 0.404967 0.45
-11.2756 -13.7569 0.404974 0.33
-11.1856 -13.7451 0.40399 0.21
-11.0936 -13.7303 0.404007 0.54
-11.0406 -13.7594 0.40301 0.21
-10.8514 -13.6337 0.40106 0.37
-10.8135 -13.6788 0.401059 0.32
-10.8837 -13.8007 0.403028 0.21
-10.7937 -13.7869 0.402045 0.5
-10.7528 -13.8279 0.402044 0.32
-10.6728 -13.8231 0.401058 0.28
-10.5747 -13.7973 0.401077 0.22
-10.4326 -13.7196 0.399112 0.29
-10.3616 -13.7247 0.399123 0.35
-10.3106 -13.7518 0.399126 0.38
-10.2937 -13.7748 0.399125 0.47
-10.2598 -13.8239 0.399122 0.29
-10.1006 -13.7202 0.397164 0.29
-10.0265 -13.7194 0.396176 0.43
-10.0057 -13.7834 0.397169 0.3
-9.93067 -13.7795 0.396181 0.28
-9.79852 -13.7048 0.395214 0.31
-9.7525 -13.6929 0.395223 0.41
-9.67448 -13.684 0.394237 0.27
-9.63455 -13.7221 0.394237 0.27
-9.60165 -13.7712 0.394234 0.47
-9.53566 -13.7753 0.394244 0.22
-9.35739 -13.6377 0.392294 0.3
-9.29641 -13.6478 0.391302 0.32
-9.26441 -13.6518 0.391307 0.48
-9.26559 -13.7418 0.392292 0.23
-9.0853 -13.5962 0.390344 0.31
-9.05139 -13.6403 0.390342 0.49
-9.06861 -13.7522 0.391321 0.35
-9.02668 -13.7863 0.391322 0.33
-8.96169 -13.7904 0.390332 0.31
-8.90663 -13.7615 0.390345 0.29
-8.85266 -13.7797 0.39035 0.35
-8.77965 -13.7708 0.389363 0.29
-8.72267 -13.7849 0.38937 0.36
-8.64765 -13.7731 0.388384 0.26
-8.59268 -13.7882 0.38839 0.29
-8.51665 -13.7743 0.388404 0.25
-8.45265 -13.7754 0.387414 0.33
-8.41163 -13.7635 0.387422 0.3
-8.08089 -13.3852 0.382536 0.35
-8.20341 -13.6509 0.385473 0.23
-8.18353 -13.713 0.385466 0.23
-8.08443 -13.6622 0.38449 0.36
-8.09364 -13.7681 0.385471 0.38
-8.02663 -13.7633 0.385483 0.28
-7.99363 -13.7613 0.384488 0.27
-7.91859 -13.7425 0.384503 0.25
-7.87063 -13.7646 0.384507 0.34
-7.80061 -13.7537 0.38352 0.3
-7.7346 -13.7478 0.383531 0.36
-7.67159 -13.746 0.383541 0.33
-7.61762 -13.7571 0.382548 0.31
-7.56957 -13.7312 0.38256 0.26
-7.51559 -13.7423 0.382566 0.41
-7.44857 -13.7334 0.381578 0.32
-7.38155 -13.7235 0.38159 0.28
-7.32456 -13.7286 0.380599 0.32
-7.27158 -13.7408 0.380605 0.35
-7.20055 -13.7219 0.380619 0.29
-7.15058 -13.739 0.380624 0.33
-7.11456 -13.7281 0.379632 0.32
-7.04753 -13.7162 0.379644 0.28
-6.99255 -13.7233 0.379652 0.29
-6.94057 -13.7344 0.378658 0.41
-6.87856 -13.7295 0.378668 0.32
-6.81454 -13.7186 0.37868 0.3
-6.68029 -13.5909 0.376722 0.28
-6.64426 -13.578 0.37673 0.32
-6.59529 -13.5931 0.375735 0.33
-6.5403 -13.5972 0.375743 0.33
-6.48731 -13.6043 0.37575 0.35
-6.43131 -13.6044 0.375759 0.36
-6.38535 -13.6235 0.375763 0.32
-6.32935 -13.6256 0.374771 0.31
-6.30135 -13.6256 0.374776 0.39
-6.24234 -13.6198 0.374786 0.38
-6.19036 -13.6279 0.374793 0.3
-6.15042 -13.6569 0.374794 0.29
-6.14158 -13.742 0.375782 0.45
-6.08859 -13.7471 0.37479 0.3
-6.0346 -13.7512 0.374797 0.35
-5.98563 -13.7643 0.374803 0.33
-5.9516 -13.7503 0.37481 0.36
-5.90664 -13.7714 0.374814 0.35
-5.85967 -13.7875 0.374819 0.32
-5.80166 -13.7816 0.373829 0.41
-5.7567 -13.8007 0.373833 0.38
-5.69768 -13.7928 0.373843 0.39
-5.66767 -13.7859 0.373849 0.32
-5.61668 -13.794 0.373856 0.34
-5.56971 -13.8081 0.372861 0.34
-5.51471 -13.8072 0.37287 0.39
-5.46472 -13.8143 0.372876 0.36
-5.41574 -13.8244 0.372883 0.37
-5.37078 -13.8435 0.372887 0.31
-5.29067 -13.7876 0.371908 0.37
-5.25965 -13.7797 0.371914 0.41
-5.22272 -13.8138 0.371915 0.4
-5.17675 -13.8289 0.371919 0.39
-5.13078 -13.8439 0.371924 0.42
-5.07979 -13.847 0.371932 0.34
-4.99364 -13.7752 0.370957 0.41
-4.85829 -13.5925 0.368008 0.38
-4.9267 -13.8013 0.370963 0.28
-4.81242 -13.6626 0.369004 0.32
-4.74334 -13.6227 0.368021 0.45
-4.76969 -13.7997 0.369988 0.4
-4.74079 -13.8517 0.369984 0.39
-4.70286 -13.8838 0.369985 0.3
-4.65387 -13.8899 0.369991 0.34
-4.59483 -13.872 0.370004 0.32
-4.57486 -13.887 0.370004 0.32
-4.50679 -13.8482 0.369021 0.35
-4.47186 -13.8872 0.37002 0.3
-4.42187 -13.8903 0.369028 0.41
-4.36886 -13.8844 0.369037 0.38
-4.3259 -13.9045 0.369041 0.29
-4.26585 -13.8806 0.369054 0.25
-4.18056 -13.7318 0.367091 0.48
-4.19387 -13.8928 0.368063 0.41
-4.15694 -13.9249 0.369064 0.34
-4.10493 -13.924 0.368072 0.32
-4.05393 -13.9201 0.368081 0.32
-3.94965 -13.7803 0.36712 0.38
-3.93885 -13.8813 0.367105 0.34
-3.91486 -13.8853 0.367108 0.41
-3.88496 -13.9374 0.368104 0.26
-3.83295 -13.9335 0.368113 0.29
-3.78998 -13.9496 0.368117 0.38
-3.73093 -13.9247 0.367131 0.3
-3.64373 -13.8219 0.366161 0.39
-3.6068 -13.8549 0.366161 0.3
-3.57073 -13.823 0.366172 0.34
-3.55491 -13.915 0.36616 0.46
-3.49486 -13.8851 0.366174 0.28
-3.45189 -13.9022 0.366178 0.28
-3.38277 -13.8424 0.365199 0.42
-3.32975 -13.8305 0.365209 0.36
-3.30287 -13.8945 0.365203 0.37
-3.28606 -13.9906 0.36619 0.39
-3.26307 -13.9926 0.366193 0.32
-3.21306 -13.9897 0.366201 0.42
-3.17311 -14.0148 0.366204 0.29
-3.07179 -13.85 0.364246 0.46
-3.02781 -13.8641 0.364251 0.26
-2.96673 -13.8202 0.364268 0.48
-2.92577 -13.8413 0.364271 0.33
-2.9068 -13.8583 0.364271 0.43
-2.85075 -13.8294 0.363284 0.41
-2.81583 -13.8715 0.364283 0.41
-2.75877 -13.8406 0.363297 0.29
-2.70069 -13.8007 0.363312 0.57
-2.66275 -13.8328 0.363313 0.32
-2.63086 -13.8878 0.363309 0.44
-2.61491 -13.9159 0.364307 0.4
-2.58403 -13.9739 0.364303 0.34
-2.52494 -13.929 0.363319 0.47
-2.47291 -13.9141 0.36333 0.4
-2.439 -13.9582 0.363328 0.3
-2.38596 -13.9393 0.363339 0.49
-2.33895 -13.9354 0.363347 0.38
-2.30588 -13.8985 0.363359 0.4
-2.26694 -13.9316 0.363359 0.44
-2.2149 -13.9097 0.362371 0.39
-2.15681 -13.8628 0.362388 0.48
-2.14508 -14.0018 0.363367 0.3
-2.08901 -13.9629 0.363382 0.38
-1.99865 -13.7831 0.361426 0.35
-1.98372 -13.8151 0.361423 0.45
-1.9357 -13.8082 0.361431 0.37
-1.90079 -13.8553 0.361429 0.39
-1.85177 -13.8424 0.361439 0.44
-1.80778 -13.8485 0.361445 0.29
-1.75674 -13.8256 0.361457 0.49
-1.71779 -13.8546 0.361458 0.37
-1.68491 -13.9127 0.361454 0.45
-1.65989 -13.9037 0.361459 0.36
-1.62498 -13.9528 0.361457 0.47
-1.58 -13.9599 0.361462 0.4
-1.54812 -14.024 0.362457 0.37
-1.48395 -13.9371 0.361481 0.4
-1.42785 -13.8832 0.360499 0.37
-1.38386 -13.8903 0.360505 0.39
-1.35076 -13.8373 0.360518 0.45
-1.31788 -13.8984 0.360514 0.45
-1.28198 -13.9485 0.361511 0.34
-1.22788 -13.9016 0.360527 0.3
-1.16672 -13.8167 0.359551 0.5
-1.15508 -14.0007 0.361523 0.38
-1.09086 -13.8919 0.36055 0.3
-1.06887 -13.8939 0.360553 0.45
-1.02792 -13.919 0.360556 0.41
-0.999109 -14.017 0.361544 0.35
-0.947023 -13.9731 0.36056 0.4
-0.908107 -14.0162 0.361559 0.43
-0.858042 -13.9833 0.360572 0.42
-0.808994 -13.9584 0.360584 0.33
-0.776151 -14.0385 0.361576 0.36
-0.738949 -13.9355 0.360598 0.42
-0.691925 -13.9236 0.360608 0.41
-0.644884 -13.9027 0.359619 0.54
-0.618137 -14.0318 0.360602 0.33
-0.58328 -14.1049 0.361595 0.27
-0.51901 -13.967 0.360628 0.41
-0.470951 -13.9371 0.35964 0.51
-0.477396 -14.1641 0.362602 0.41
-0.435441 -14.1871 0.362605 0.3
-0.379269 -14.0993 0.361628 0.23
-0.322065 -13.9954 0.360654 0.46
-0.279093 -14.0094 0.360659 0.34
-0.235106 -14.0165 0.360664 0.38
-0.186018 -13.9716 0.359679 0.47
-0.168101 -14.0137 0.360675 0.24
-0.117989 -13.9568 0.359692 0.52
-0.081142 -14.0348 0.360685 0.29
-0.0483772 -14.1549 0.361671 0.43
-0.0125538 -14.245 0.362662 0.5
0.0314069 -14.2651 0.362666 0.36
0.0958362 -14.0462 0.360711 0.32
0.100442 -14.2472 0.362679 0.31
0.14134 -14.2993 0.362677 0.38
0.197607 -14.1634 0.361708 0.34
0.240577 -14.1785 0.361713 0.48
0.283528 -14.2035 0.361715 0.4
0.324398 -14.2696 0.362711 0.29
0.365289 -14.3257 0.362708 0.37
0.418524 -14.2058 0.361736 0.36
0.442596 -14.1689 0.361746 0.39
0.480367 -14.2859 0.362733 0.34
0.524316 -14.312 0.362735 0.38
0.568286 -14.3271 0.36274 0.42
0.61429 -14.3252 0.362747 0.33
0.667657 -14.1383 0.360786 0.32
0.712684 -14.1244 0.360796 0.3
0.739906 -14.0114 0.359818 0.51
0.778641 -14.1465 0.360802 0.25
0.826809 -14.0606 0.359824 0.44
0.874021 -13.9527 0.358849 0.35
0.91905 -13.9378 0.358858 0.45
0.958809 -14.0609 0.359844 0.48
0.99727 -14.3359 0.362806 0.38
1.01821 -14.369 0.363804 0.3
1.06539 -14.2741 0.362827 0.44
1.11146 -14.2412 0.361839 0.34
1.15658 -14.1793 0.361856 0.34
1.20174 -14.0963 0.360877 0.48
1.2457 -14.1144 0.360881 0.41
1.29066 -14.1385 0.360884 0.29
1.31269 -14.1206 0.36089 0.54
1.35663 -14.1527 0.360892 0.25
1.40162 -14.1587 0.360898 0.52
1.44645 -14.2428 0.361891 0.36
1.49149 -14.2219 0.361902 0.34
1.53466 -14.138 0.360922 0.33
1.57869 -14.1211 0.360932 0.43
1.62368 -14.1262 0.360938 0.41
1.64571 -14.1142 0.360944 0.35
1.69064 -14.1473 0.360945 0.44
1.73748 -14.2304 0.361939 0.34
1.77871 -14.1105 0.360965 0.49
1.83028 -14.3336 0.362937 0.36
1.8772 -14.3717 0.363938 0.41
1.89444 -14.2507 0.36196 0.33
1.9404 -14.2708 0.362964 0.42
1.99019 -14.3789 0.363955 0.26
2.03134 -14.301 0.362974 0.57
2.08116 -14.3911 0.363967 0.38
2.13102 -14.4622 0.364963 0.31
2.16829 -14.3282 0.362991 0.3
2.19129 -14.3293 0.362994 0.51
2.24308 -14.4324 0.363986 0.27
2.28033 -14.3055 0.363012 0.41
2.32728 -14.3326 0.363015 0.44
2.37618 -14.3856 0.364014 0.4
2.42704 -14.4538 0.365011 0.34
2.47594 -14.5058 0.36501 0.39
2.52194 -14.5049 0.365018 0.4
2.54104 -14.455 0.365029 0.36
2.57822 -14.362 0.36405 0.29
2.6203 -14.3241 0.364062 0.5
2.66924 -14.3532 0.364065 0.41
2.71521 -14.3673 0.36407 0.33
2.76121 -14.3694 0.364077 0.47
2.80623 -14.3605 0.364086 0.31
2.83217 -14.3885 0.364085 0.46
2.87128 -14.3316 0.364101 0.38
2.9163 -14.3227 0.364109 0.34
2.95934 -14.3018 0.364119 0.48
3.01419 -14.3809 0.365115 0.38
3.05624 -14.353 0.364126 0.27
3.09929 -14.3281 0.364137 0.51
3.12917 -14.3891 0.365132 0.35
3.17518 -14.3852 0.36514 0.41
3.21427 -14.3363 0.364154 0.41
3.25929 -14.3284 0.364162 0.45
3.29641 -14.2645 0.364178 0.31
3.34043 -14.2565 0.364186 0.44
3.38545 -14.2486 0.364195 0.38
3.40449 -14.2237 0.363202 0.48
3.45741 -14.2678 0.364203 0.32
3.4955 -14.2218 0.364216 0.39
3.54841 -14.2649 0.364218 0.43
3.5954 -14.271 0.364224 0.33
3.64238 -14.2821 0.36423 0.38
3.69036 -14.2912 0.365236 0.39
3.7423 -14.3243 0.365238 0.4
3.76827 -14.3404 0.36524 0.46
3.81625 -14.3505 0.365246 0.38
3.8662 -14.3726 0.36625 0.35
3.91518 -14.3867 0.366255 0.39
3.95921 -14.3708 0.366265 0.48
4.03094 -14.5079 0.367254 0.43
4.09774 -14.611 0.369248 0.32
4.10887 -14.542 0.368261 0.29
4.13905 -14.4531 0.36728 0.31
4.17318 -14.3872 0.366296 0.48
4.21918 -14.3863 0.367303 0.42
4.27609 -14.4304 0.367305 0.41
4.31814 -14.4075 0.367315 0.41
4.3691 -14.4276 0.36732 0.35
4.38418 -14.3856 0.367329 0.41
4.4292 -14.3757 0.367338 0.46
4.47521 -14.3698 0.367346 0.28
4.52519 -14.3799 0.367352 0.5
4.5722 -14.377 0.36736 0.38
4.61523 -14.357 0.36737 0.41
4.66125 -14.3511 0.367378 0.47
4.70705 -14.4492 0.36837 0.41
4.74514 -14.4073 0.368382 0.43
4.80703 -14.4624 0.369383 0.35
4.82427 -14.3374 0.367406 0.38
4.87326 -14.3435 0.368413 0.33
4.92225 -14.3486 0.36842 0.45
4.9772 -14.3737 0.368424 0.35
5.02619 -14.3798 0.368431 0.39
5.0492 -14.3739 0.368436 0.43
5.09819 -14.38 0.368442 0.34
5.13826 -14.3471 0.368454 0.43
5.19916 -14.3932 0.369456 0.4
5.27795 -14.5043 0.37045 0.37
5.33489 -14.5344 0.371454 0.38
5.37495 -14.5025 0.370466 0.43
5.40789 -14.5326 0.371466 0.45
5.48967 -14.6448 0.372461 0.36
5.48901 -14.4707 0.370489 0.38
5.52411 -14.4208 0.370502 0.4
5.57013 -14.4119 0.370511 0.41
5.6231 -14.425 0.370517 0.29
5.68105 -14.4521 0.371522 0.52
5.713 -14.4772 0.371523 0.3
5.7481 -14.4273 0.371537 0.5
5.84579 -14.5834 0.372526 0.35
5.88884 -14.5615 0.372537 0.39
5.94182 -14.5686 0.373544 0.38
6.02462 -14.6708 0.37454 0.41
6.07562 -14.6729 0.374548 0.34
6.07577 -14.5929 0.373561 0.35
6.11782 -14.569 0.373571 0.42
6.18871 -14.6281 0.374573 0.4
6.22877 -14.5952 0.374585 0.36
6.28175 -14.6033 0.374592 0.46
6.34568 -14.6404 0.375596 0.32
6.39569 -14.6355 0.375604 0.48
6.41274 -14.6096 0.374611 0.43
6.47667 -14.6457 0.375615 0.24
6.5058 -14.5807 0.37563 0.48
6.55282 -14.5698 0.37564 0.36
6.6267 -14.629 0.375642 0.4
6.69064 -14.6631 0.376646 0.37
6.70882 -14.5691 0.375664 0.45
6.73581 -14.5742 0.375668 0.36
6.79577 -14.5943 0.376674 0.45
6.88459 -14.6895 0.377672 0.26
6.90177 -14.5975 0.37669 0.5
6.96571 -14.6266 0.377695 0.29
7.01572 -14.6207 0.377704 0.5
7.08762 -14.6699 0.377707 0.36
7.13652 -14.726 0.378706 0.37
7.17061 -14.676 0.378719 0.36
7.21963 -14.6651 0.378729 0.36
7.26766 -14.6522 0.378738 0.34
7.31071 -14.6263 0.378749 0.47
7.36869 -14.6364 0.378757 0.34
7.41373 -14.6165 0.378767 0.38
7.47669 -14.6376 0.379774 0.44
7.53952 -14.7218 0.38077 0.34
7.56366 -14.6508 0.379785 0.35
7.61866 -14.6519 0.379794 0.37
7.6637 -14.63 0.379804 0.34
7.72269 -14.6391 0.380812 0.52
7.83244 -14.7643 0.381809 0.32
7.81775 -14.6063 0.380832 0.38
7.84674 -14.6094 0.380836 0.3
7.88581 -14.5744 0.380848 0.44
7.94579 -14.5846 0.380856 0.39
8.03166 -14.6527 0.381858 0.41
8.08567 -14.6478 0.381868 0.29
8.11876 -14.5999 0.38188 0.43
8.18671 -14.626 0.381887 0.37
8.20774 -14.6111 0.381893 0.46
8.25578 -14.5932 0.381903 0.42
8.31875 -14.6073 0.382911 0.35
8.35981 -14.5764 0.382922 0.42
8.43673 -14.6175 0.382928 0.39
8.48675 -14.6046 0.382937 0.31
8.5577 -14.6318 0.383944 0.48
8.60662 -14.6729 0.384945 0.36
8.67856 -14.702 0.384952 0.47
8.78438 -14.7982 0.386953 0.3
8.77066 -14.6552 0.384974 0.34
8.81371 -14.6273 0.384985 0.45
8.86573 -14.6164 0.384995 0.41
8.93669 -14.6405 0.386002 0.34
8.94277 -14.5965 0.38501 0.43
9.00875 -14.6096 0.386019 0.4
9.10959 -14.6898 0.387021 0.3
9.15763 -14.6689 0.387032 0.5
9.22261 -14.6801 0.388041 0.35
9.27663 -14.6692 0.388051 0.41
9.32069 -14.6403 0.388063 0.4
9.39364 -14.6644 0.38807 0.42
9.48243 -14.7706 0.390067 0.31
9.54044 -14.7667 0.390076 0.39
9.61738 -14.7968 0.390084 0.38
9.63653 -14.7219 0.390099 0.35
9.69155 -14.711 0.390109 0.38
9.74158 -14.6921 0.39012 0.43
9.81554 -14.7142 0.391128 0.32
9.87545 -14.7633 0.39113 0.38
9.93844 -14.7655 0.392139 0.46
10.0403 -14.8337 0.393144 0.41
10.188 -14.977 0.395144 0.32
10.2251 -14.932 0.395157 0.33
10.2642 -14.8921 0.39517 0.37
10.3312 -14.8962 0.39518 0.39
10.415 -14.9834 0.396179 0.41
10.5328 -15.0706 0.398183 0.27
10.4882 -14.8915 0.396205 0.31
10.5452 -14.8797 0.396216 0.34
10.6192 -14.8938 0.396225 0.44
10.6643 -14.8629 0.396237 0.33
10.7651 -14.9201 0.397244 0.45
10.834 -14.9762 0.398245 0.3
10.8422 -14.8852 0.398262 0.37
10.9162 -14.8974 0.398271 0.33
10.9902 -14.9095 0.399281 0.38
11.0661 -14.9247 0.39929 0.43
11.163 -14.9689 0.400298 0.34
11.247 -14.995 0.401307 0.34
11.266 -14.9721 0.401314 0.42
11.353 -15.0012 0.401323 0.37
11.428 -15.0114 0.402333 0.37
11.471 -14.9725 0.402346 0.33
11.559 -15.0026 0.403355 0.39
11.628 -15.0018 0.403366 0.32
11.6691 -14.9609 0.403379 0.36
11.7371 -14.958 0.40339 0.32
11.7721 -14.9581 0.403396 0.44
11.86 -14.9842 0.404405 0.29
11.9071 -14.9513 0.404418 0.44
12.004 -14.9885 0.405427 0.37
12.0401 -14.9396 0.405441 0.33
12.131 -14.9668 0.406451 0.37
12.2539 -15.038 0.407458 0.39
12.271 -15.011 0.407465 0.34
12.3709 -15.0492 0.408475 0.45
12.4798 -15.0985 0.409484 0.3
12.5907 -15.1477 0.410493 0.53
12.7385 -15.247 0.4125 0.23
12.6759 -15.0648 0.41052 0.34
12.8536 -15.2012 0.412526 0.34
12.9225 -15.2423 0.41353 0.29
12.9077 -15.1243 0.412547 0.36
12.9997 -15.1455 0.412558 0.43
13.0617 -15.1276 0.41357 0.34
13.1258 -15.1107 0.413583 0.32
13.1279 -15.0177 0.412599 0.35
13.2089 -15.0229 0.413611 0.3
13.225 -14.9949 0.412618 0.32
13.3569 -15.0642 0.414627 0.44
13.4518 -15.0854 0.415639 0.38
13.5218 -15.0755 0.415651 0.35
13.6717 -15.1628 0.41766 0.34
13.7896 -15.21 0.418671 0.36
13.8067 -15.1341 0.417686 0.33
13.8408 -15.0781 0.417701 0.36
13.9656 -15.1804 0.419704 0.37
14.0756 -15.2156 0.420715 0.4
14.1206 -15.1727 0.420729 0.33
14.2505 -15.2279 0.421741 0.39
14.3186 -15.2121 0.421754 0.35
14.3926 -15.2012 0.422767 0.36
14.5235 -15.2575 0.423779 0.32
14.5795 -15.2726 0.423785 0.34
14.6405 -15.2467 0.424799 0.38
14.7075 -15.2268 0.424813 0.39
14.8514 -15.2931 0.425824 0.25
14.9234 -15.2772 0.426838 0.33
14.9286 -15.1873 0.425854 0.36
14.9946 -15.2134 0.42686 0.4
15.1045 -15.2386 0.427873 0.37
15.1915 -15.2388 0.427887 0.28
15.3055 -15.267 0.4289 0.32
15.3815 -15.2541 0.429914 0.32
15.4565 -15.2393 0.429928 0.35
15.5465 -15.2405 0.430942 0.43
15.7453 -15.3559 0.432954 0.3
15.8691 -15.4401 0.43396 0.22
15.9671 -15.4463 0.434975 0.24
16.0541 -15.4415 0.435989 0.51
16.1332 -15.4266 0.436004 0.23
15.9357 -15.1252 0.433022 0.18
15.9389 -15.0342 0.432037 0.28
16.003 -15.0054 0.432052 0.36
16.046 -15.0024 0.432059 0.16
16.747 -15.5208 0.441085 0.38
17.0995 -15.7765 0.445099 0.26
17.2035 -15.7807 0.446114 0.27
17.2955 -15.7729 0.44713 0.22
17.4005 -15.7781 0.448146 0.41
17.4824 -15.8083 0.448154 0.21
17.6024 -15.8255 0.44917 0.21
17.7094 -15.8307 0.450186 0.26
17.8024 -15.8209 0.451202 0.2
17.8175 -15.7359 0.450218 0.2
17.9116 -15.7271 0.451234 0.38
18.1603 -15.8626 0.454251 0.22
18.2783 -15.8738 0.455268 0.24
18.3532 -15.894 0.455276 0.21
18.4682 -15.9002 0.456293 0.29
18.5792 -15.9034 0.45731 0.22
18.7132 -15.9257 0.458328 0.21
18.8222 -15.9249 0.459345 0.36
18.9392 -15.9311 0.460362 0.2
19.0431 -15.9743 0.461372 0.25
19.1381 -15.9585 0.462389 0.18
19.2741 -15.9798 0.463407 0.32
19.3951 -15.986 0.464425 0.2
19.52 -15.9953 0.465443 0.17
19.658 -16.0145 0.466461 0.32
19.761 -16.0027 0.46748 0.18
19.8371 -15.9669 0.467497 0.38
19.9829 -16.0422 0.469508 0.18
20.1019 -16.0424 0.470527 0.18
20.2309 -16.0507 0.471546 0.17
20.3829 -16.0759 0.472565 0.17
20.4969 -16.0702 0.473584 0.32
20.6229 -16.0724 0.474603 0.2
20.7579 -16.0827 0.475623 0.19
20.8818 -16.1329 0.476634 0.31
20.9888 -16.1171 0.477654 0.26
21.1507 -16.1465 0.478674 0.26
21.2917 -16.1577 0.480695 0.11
21.4107 -16.15 0.480715 0.15
21.5477 -16.1552 0.482735 0.16
21.7047 -16.1765 0.483756 0.18
21.8226 -16.2178 0.484768 0.18
21.9676 -16.2271 0.485789 0.18
22.0956 -16.2233 0.48681 0.16
22.2396 -16.2306 0.487832 0.1
22.3876 -16.2389 0.489853 0.15
22.5316 -16.2442 0.490875 0.23
22.6955 -16.2645 0.491898 0.26
22.8214 -16.3067 0.49391 0.25
22.9794 -16.32 0.494933 0.26
23.1274 -16.3233 0.495956 0.19
23.2774 -16.3296 0.496978 0.18
23.3165 -16.2507 0.496997 0.14
23.4266 -16.2259 0.498019 0.15
23.5936 -16.2412 0.499042 0.17
23.7215 -16.2805 0.501056 0.16
23.9634 -16.348 0.503083 0.1
24.2162 -16.4215 0.506111 0
24.3962 -16.4408 0.507136 0.13
24.5232 -16.4221 0.508159 0.09
24.6243 -16.3833 0.509181 0.15
24.6345 -16.2823 0.508199 0.27
24.7464 -16.3055 0.509213 0.21
25.0003 -16.372 0.512242 0.14
25.3201 -16.4826 0.515274 0
25.3323 -16.3797 0.515293 0.08
25.7509 -16.5535 0.51933 0.13
25.9239 -16.5588 0.521356 0.1
26.0939 -16.5601 0.522383 0.09
26.3358 -16.6086 0.524413 0
26.4538 -16.6299 0.525428 0.11
26.5928 -16.6081 0.526453 0.1
26.7389 -16.5904 0.528479 0.16
26.6632 -16.4273 0.526494 0.22
27.0999 -16.5961 0.531535 0.17
27.1301 -16.5012 0.530555 0.13
26.9185 -16.2528 0.527562 0.14
27.5778 -16.6131 0.535607 0.17
27.7329 -16.5964 0.536634 0.19
27.7071 -16.4643 0.535652 0.34
27.7873 -16.3995 0.536675 0.22
27.8354 -16.3146 0.535696 0.14
18.6317 -10.5765 0.426184 0.29
18.5958 -10.4814 0.425194 0.38
18.6209 -10.4595 0.425201 0.32
18.628 -10.3895 0.425214 0.54
29.2038 -16.6182 0.549861 0
29.7005 -16.7932 0.554911 0.12
29.7696 -16.7144 0.554935 0.14
19.2379 -10.4517 0.431299 0.33
19.262 -10.3907 0.430313 0.36
19.1842 -10.3086 0.429314 0.18
19.3551 -10.3319 0.431337 0.18
18.7691 -9.85077 0.423323 0.38
18.8312 -9.81389 0.424339 0.32
18.9032 -9.78203 0.424356 0.31
18.9133 -9.71605 0.424368 0.44
18.9354 -9.69209 0.424375 0.34
18.9975 -9.65421 0.424391 0.39
19.0695 -9.62135 0.425408 0.45
19.0926 -9.5624 0.425421 0.29
19.1268 -9.50847 0.425435 0.3
19.0909 -9.4174 0.424444 0.34
19.1031 -9.35242 0.424457 0.25
19.0552 -9.29233 0.423459 0.42
19.374 -9.38695 0.427494 0.28
19.2293 -9.24067 0.425495 0
35.3882 -17.4384 0.609699 0.11
35.4354 -17.3275 0.608724 0.17
35.5696 -17.2617 0.609756 0.13
35.8346 -17.2592 0.612798 0
36.3513 -17.3803 0.617859 0.14
36.3265 -17.2992 0.616869 0.11
36.5655 -17.2807 0.618909 0
37.1213 -17.4138 0.624975 0.12
37.4063 -17.4123 0.62802 0.12
37.6993 -17.4129 0.630065 0.15
37.9024 -17.3693 0.632104 0.18
38.1214 -17.3317 0.634145 0.18
38.2714 -17.332 0.635168 0.1
38.7683 -17.421 0.640232 0.08
39.1602 -17.4598 0.644287 0
39.626 -17.5287 0.649349 0
40.1399 -17.6167 0.654415 0
40.345 -17.5621 0.655456 0
40.7379 -17.5899 0.659514 0
40.793 -17.541 0.65953 0
41.5856 -17.7415 0.667622 0
42.7609 -18.1038 0.680748 0
24.305 -9.87362 0.475188 0.19
24.3322 -9.79967 0.475205 0.3
24.6001 -9.8272 0.477242 0.18
24.5862 -9.77817 0.477248 0.25
24.2916 -9.57059 0.473236 0
45.6655 -18.3045 0.709171 0
46.0116 -18.2832 0.712229 0
46.3706 -18.2649 0.715288 0
46.8306 -18.2858 0.719357 0
47.5683 -18.4133 0.727452 0
48.0643 -18.4412 0.732525 0
48.563 -18.5522 0.737585 0
49.1389 -18.6053 0.742667 0
49.9367 -18.7399 0.75077 0
50.4506 -18.7609 0.755847 0
51.0705 -18.8191 0.761935 0
51.6844 -18.8703 0.768023 0
52.2943 -18.9165 0.774112 0
52.8851 -19.0437 0.780184 0
53.2302 -18.9864 0.783247 0
53.9211 -19.0517 0.790345 0
54.7379 -19.1573 0.798456 0
55.3928 -19.2016 0.805551 0
56.1396 -19.2731 0.812657 0
56.8106 -19.3134 0.818756 0
57.5193 -19.4608 0.826843 0
58.2761 -19.5223 0.833952 0
58.9851 -19.5636 0.841056 0
59.7779 -19.6282 0.84917 0
60.5528 -19.6817 0.856283 0
61.2888 -19.7172 0.864393 0
61.568 -19.5987 0.866456 0
61.6891 -19.5339 0.867486 0
62.4171 -19.5574 0.874596 0
63.3519 -19.6422 0.883729 0
63.904 -19.6003 0.888822 0
64.7429 -19.6449 0.897947 0
65.7657 -19.7399 0.908092 0
66.6546 -19.7877 0.917224 0
45.3424 -13.2619 0.688939 0
45.2228 -13.0756 0.687951 0
44.7403 -12.7837 0.681923 0
45.0674 -12.7313 0.684982 0
45.6264 -12.7424 0.691068 0
45.5608 -12.5733 0.690085 0
45.588 -12.4314 0.689113 0
49.9458 -13.5719 0.735611 0
49.3444 -13.2417 0.728571 0
49.2968 -13.0666 0.727592 0
51.9464 -13.2768 0.754973 0
51.7658 -13.0605 0.75198 0
51.9211 -12.9308 0.754026 0
51.8862 -12.8377 0.753035 0
51.7486 -12.6344 0.751047 0
51.722 -12.4594 0.750071 0
52.0322 -12.368 0.753134 0
52.0905 -12.2131 0.753169 0
52.2607 -12.0844 0.755216 0
52.287 -11.9225 0.755247 0
78.317 7.8956 0.477552 0
77.3092 8.03357 0.474416 0
77.3287 8.27754 0.474459 0
77.727 8.44176 0.475548 0
77.1974 8.62479 0.473494 0
77.0688 8.85105 0.473511 0
77.2633 9.11567 0.474584 0
77.5119 9.38818 0.475668 0
77.5894 9.64103 0.475721 0
74.1624 9.67374 0.464188 0
68.8823 9.08209 0.447264 0
68.8477 9.29316 0.447293 0
68.9511 9.52396 0.447346 0
69.1146 9.76464 0.448411 0
71.8258 10.3803 0.456937 0
69.2205 10.2154 0.448501 0
71.8877 10.8422 0.458021 0
71.93 10.9621 0.458047 0
71.9684 11.195 0.458091 0
72.0079 11.429 0.458136 0
67.5929 10.9306 0.443362 0
72.0648 11.8949 0.45922 0
72.0842 12.1268 0.459261 0
72.0457 12.3489 0.459291 0
71.688 12.5146 0.458262 0
63.1672 11.1013 0.429695 0
62.8765 11.2489 0.428673 0
62.2527 11.3331 0.426589 0
61.8479 11.4549 0.425545 0
60.8709 11.4638 0.422394 0.09
60.6672 11.6182 0.421387 0.11
60.7036 11.8191 0.422425 0.16
60.7398 11.9231 0.422448 0.28
60.7572 12.121 0.422482 0.26
60.7966 12.3229 0.422521 0.27
60.814 12.5219 0.422556 0.26
60.8514 12.7248 0.423595 0.27
60.8908 12.9288 0.423635 0
56.4262 12.1425 0.408806 0
60.9624 13.2386 0.423696 0.11
60.9668 13.4366 0.423729 0.18
60.9932 13.6396 0.424766 0.18
61.0126 13.8405 0.424802 0
60.8979 14.0117 0.424812 0.13
60.5151 14.1185 0.423769 0.29
60.0603 14.2054 0.421712 0.2
59.6123 14.1933 0.420639 0.18
59.1384 14.2712 0.418578 0
51.9906 12.8472 0.394225 0
51.5917 12.914 0.393173 0.06
51.1479 12.9668 0.392112 0.15
50.761 13.0316 0.391062 0
49.868 13.0424 0.387923 0
49.6052 13.1339 0.386897 0.13
49.5815 13.2899 0.386919 0.12
49.6138 13.4629 0.387952 0.16
49.6251 13.6288 0.38798 0.11
49.6555 13.8018 0.388013 0.16
49.6638 13.9678 0.388042 0.11
49.713 14.0647 0.389065 0.14
46.1893 13.1946 0.376371 0.12
49.7657 14.4106 0.38913 0
49.776 14.5795 0.389159 0
26.9657 7.81223 0.30948 0
26.1538 7.86382 0.30736 0
25.9348 7.87925 0.306329 0
25.7409 7.90163 0.306302 0
25.59 7.93792 0.305284 0
25.4781 7.98514 0.305274 0
25.4202 8.05026 0.305276 0
25.5063 8.12109 0.305301 0
25.5845 8.23194 0.305331 0
25.6307 8.33285 0.306355 0
25.718 8.44767 0.306387 0
25.7532 8.54561 0.306408 0
46.917 16.0961 0.381956 0.11
46.5991 16.1438 0.380914 0.16
46.336 16.1303 0.379871 0.43
44.0357 15.4578 0.372401 0.24
39.0494 13.7896 0.354347 0.26
43.7801 15.6683 0.371395 0.12
43.7774 15.8183 0.371419 0.3
43.7987 15.9783 0.372448 0.32
43.81 16.1352 0.372475 0.25
43.7942 16.2053 0.372484 0.35
42.6496 15.9175 0.368258 0.18
42.3997 15.97 0.368227 0.25
42.1818 16.0324 0.367203 0.3
41.971 16.0978 0.36618 0.09
41.7341 16.1513 0.366152 0.13
41.3921 16.16 0.3651 0.13
41.0361 16.1617 0.364044 0.18
40.9712 16.2078 0.364041 0.15
40.7423 16.2592 0.363014 0.17
40.5064 16.3067 0.361985 0.14
35.0282 14.1524 0.342775 0.25
34.8633 14.2078 0.342758 0.35
34.7224 14.272 0.341746 0
34.6666 14.3711 0.341754 0
34.4825 14.3545 0.341722 0
34.2666 14.3839 0.340693 0
34.0757 14.4223 0.339669 0.1
31.2294 13.2829 0.330037 0
33.6348 14.4722 0.338608 0
33.4819 14.5245 0.338593 0
33.2819 14.5549 0.337566 0
33.1329 14.5482 0.337542 0
32.918 14.5696 0.336512 0.11
29.9615 13.3164 0.325844 0.14
30.1819 13.5289 0.326913 0.2
32.2441 14.6139 0.334413 0.44
32.2072 14.715 0.335424 0.2
32.2745 14.8658 0.335459 0.34
32.3107 14.9438 0.335477 0.34
32.3249 15.0697 0.3355 0.35
32.3452 15.2007 0.336524 0.37
32.3675 15.3327 0.336549 0.33
32.3817 15.4606 0.336572 0.34
32.401 15.5926 0.336597 0.34
32.6394 15.8351 0.337673 0
32.4454 15.7985 0.337637 0.07
35.3766 17.4198 0.34836 0.17
35.3858 17.5597 0.348385 0.11
32.6833 16.292 0.338755 0.09
32.6095 16.3782 0.338757 0.11
32.5437 16.4693 0.338761 0.22
32.5479 16.5973 0.338783 0.35
32.5682 16.7333 0.338808 0.36
32.6084 16.8192 0.339828 0.36
32.6206 16.9522 0.339852 0.36
32.6309 17.0841 0.339875 0.36
32.6482 17.2221 0.3399 0.32
27.7581 14.6427 0.321714 0.36
27.7063 14.7228 0.321719 0.29
32.3806 17.4576 0.339896 0.33
32.2446 17.4449 0.339873 0.34
32.0807 17.4802 0.338853 0.38
31.8917 17.4996 0.338826 0.31
31.7238 17.5309 0.337805 0.33
31.5618 17.5642 0.337785 0.34
31.3989 17.5966 0.337765 0.34
31.235 17.6269 0.336744 0.34
31.1039 17.6121 0.336721 0.33
30.925 17.6315 0.335696 0.35
30.77 17.6648 0.335677 0.38
30.4559 17.6014 0.334618 0.31
30.4511 17.7234 0.334637 0.36
30.2902 17.7507 0.334616 0.36
30.1332 17.779 0.333596 0.33
30.0102 17.7653 0.333574 0.34
29.8543 17.7926 0.333554 0.34
29.7013 17.8219 0.332535 0.34
29.5404 17.8442 0.332514 0.34
29.3864 17.8705 0.332494 0.36
29.2415 17.9008 0.331476 0.34
29.0925 17.9291 0.331457 0.36
28.9735 17.9143 0.331436 0.33
28.8356 17.9466 0.33042 0.51
28.6646 17.9589 0.330395 0.25
28.5287 17.9912 0.330379 0.32
28.3347 17.9856 0.329347 0.2
28.2318 18.0388 0.32934 0.51
28.0958 18.07 0.329323 0.17
27.9408 18.0873 0.328302 0.28
27.8428 18.0815 0.328286 0.36
27.6959 18.1028 0.328266 0.35
27.5679 18.1361 0.327251 0.35
27.419 18.1544 0.327231 0.34
27.286 18.1836 0.327215 0.36
27.1441 18.2049 0.326196 0.38
23.6064 15.8158 0.312253 0.31
23.5204 15.808 0.312238 0.37
23.4044 15.8302 0.311223 0.34
23.3776 15.9153 0.311233 0.52
23.2917 15.9584 0.311227 0.29
23.1907 15.9906 0.311216 0.29
23.0768 16.0119 0.311201 0.29
22.9588 16.0301 0.311186 0.29
22.8678 16.0153 0.310169 0.29
22.7528 16.0345 0.310154 0.29
22.6389 16.0537 0.31014 0.29
22.5239 16.0719 0.310124 0.29
22.4119 16.0912 0.30911 0.29
22.291 16.1034 0.309093 0.3
22.192 16.1316 0.309082 0.3
22.101 16.1138 0.309065 0.3
21.992 16.134 0.308051 0.3
21.882 16.1512 0.308037 0.3
21.7731 16.1694 0.308022 0.31
21.6591 16.1836 0.308007 0.3
21.5572 16.2068 0.306995 0.3
21.4482 16.2231 0.30698 0.3
21.3622 16.2062 0.306964 0.2
18.4727 13.9589 0.294145 0.29
18.3027 13.9092 0.294111 0.34
18.2097 13.9224 0.294098 0.31
18.1618 13.9715 0.294099 0.41
18.0978 14.0066 0.294094 0.28
18.0409 14.0497 0.294092 0.44
18.053 14.1037 0.294103 0.34
18.1594 14.2845 0.294149 0.44
18.0965 14.3216 0.294145 0.26
18.0586 14.3807 0.294149 0.39
20.9096 16.9361 0.307012 0.29
20.9208 17.0541 0.308032 0.38
20.9391 17.1791 0.308056 0.38
20.9483 17.296 0.308076 0.33
20.9915 17.389 0.308098 0.55
24.063 20.2309 0.323042 0.18
24.0763 20.3719 0.323067 0.3
21.3377 18.0333 0.311257 0.2
21.2127 18.0345 0.310238 0.12
21.1278 18.0707 0.31023 0.35
21.086 18.1468 0.310236 0.35
21.1382 18.2517 0.311261 0.36
21.1334 18.3627 0.311278 0.36
21.1536 18.4976 0.311304 0.37
21.1739 18.6336 0.312329 0.38
21.1741 18.7506 0.312348 0.36
21.1954 18.8896 0.312374 0.36
21.2227 19.0345 0.313402 0.33
21.1608 19.0946 0.313402 0.37
21.0758 19.0728 0.312385 0.41
20.9808 19.101 0.312374 0.36
20.8638 19.1062 0.312357 0.41
20.7749 19.1394 0.312348 0.32
20.6579 19.1446 0.311331 0.59
16.6874 15.3084 0.293085 0.25
16.6144 15.3315 0.293077 0.33
16.5885 15.3536 0.293076 0.32
16.5486 15.4097 0.293079 0.24
20.185 19.2115 0.311268 0.42
20.0941 19.2387 0.310258 0.36
19.9851 19.2469 0.310242 0.38
19.8851 19.2651 0.310229 0.43
19.7862 19.2833 0.310217 0.36
19.7182 19.2724 0.310204 0.38
19.6232 19.2936 0.310193 0.38
19.5312 19.3178 0.309182 0.38
19.4273 19.328 0.309168 0.38
19.3333 19.3492 0.309156 0.38
19.2393 19.3704 0.309145 0.38
19.1314 19.3756 0.309129 0.39
19.0744 19.3737 0.30912 0.45
18.9784 19.3909 0.308107 0.31
18.8764 19.4011 0.308093 0.46
18.7875 19.4253 0.308083 0.46
18.6825 19.4305 0.308067 0.2
18.5925 19.4517 0.308057 0.43
18.5046 19.4758 0.308047 0.41
15.2765 15.8661 0.290954 0.23
15.2266 15.9102 0.290953 0.28
18.2436 19.4863 0.307008 0.39
18.1576 19.5105 0.306998 0.3
18.0626 19.5237 0.306985 0.48
15.3506 16.464 0.293062 0.34
15.3268 16.541 0.293071 0.23
17.7847 19.5702 0.305949 0.29
17.7327 19.5693 0.305941 0.33
17.6348 19.5775 0.305927 0.48
17.5348 19.5827 0.305912 0.52
15.43 17.1478 0.295186 0.16
17.3548 19.6141 0.305889 0.24
17.2739 19.6412 0.304881 0.4
17.1869 19.6594 0.30487 0.41
17.1289 19.6505 0.304859 0.4
17.0419 19.6687 0.304849 0.41
16.955 19.6869 0.304838 0.41
16.864 19.698 0.304825 0.41
16.781 19.7192 0.304816 0.41
16.6941 19.7364 0.304805 0.41
16.6041 19.7476 0.303793 0.42
16.5441 19.7337 0.303781 0.39
16.4611 19.7548 0.303771 0.41
16.3741 19.77 0.30376 0.35
16.2862 19.7822 0.303748 0.42
16.2082 19.8083 0.30374 0.35
16.1142 19.8125 0.303726 0.42
16.0333 19.8337 0.303717 0.35
15.9423 19.8408 0.302704 0.42
15.8943 19.8409 0.302696 0.41
15.8083 19.8541 0.302685 0.42
15.7283 19.8753 0.302676 0.35
15.6403 19.8844 0.302664 0.43
15.5514 19.8916 0.302651 0.41
15.4794 19.9228 0.302645 0.35
15.3894 19.9279 0.302631 0.42
15.3374 19.921 0.302622 0.36
15.2524 19.9332 0.301611 0.42
15.1715 19.9504 0.301601 0.42
15.0885 19.9645 0.30159 0.36
15.0075 19.9807 0.30158 0.44
14.9246 19.9938 0.301569 0.35
14.8396 20.003 0.301557 0.43
14.7956 20.0061 0.301551 0.35
14.7116 20.0163 0.301539 0.44
14.6397 20.0454 0.301533 0.29
14.5416 20.0336 0.300516 0.55
14.4647 20.0527 0.300507 0.26
14.3897 20.0759 0.300499 0.36
14.3047 20.0831 0.300486 0.44
14.2597 20.0831 0.300479 0.36
14.1768 20.0913 0.300468 0.44
14.0998 20.1115 0.300459 0.36
14.0188 20.1226 0.300448 0.44
13.9439 20.1438 0.30044 0.36
13.8559 20.1439 0.300426 0.43
13.7829 20.1661 0.299418 0.36
13.6999 20.1742 0.299406 0.44
13.6599 20.1793 0.299401 0.38
13.5769 20.1855 0.299389 0.45
13.502 20.2056 0.29938 0.37
13.418 20.2088 0.299368 0.45
13.347 20.2349 0.299361 0.36
13.265 20.2391 0.299349 0.45
13.1891 20.2562 0.299339 0.36
12.9956 19.9986 0.298267 0.45
12.9226 20.0178 0.298259 0.36
12.8436 20.0259 0.298248 0.43
12.7737 20.0501 0.298241 0.36
12.6937 20.0542 0.297229 0.47
12.698 20.2102 0.298255 0.39
12.7224 20.4022 0.29829 0.38
12.7488 20.6021 0.299327 0.37
12.8051 20.78 0.300364 0.38
12.8335 20.9879 0.300403 0.43
9.71558 15.412 0.279007 0.2
9.63652 15.3812 0.27899 0.54
9.59861 15.4273 0.278991 0.33
9.55167 15.4564 0.278989 0.29
12.9716 22.0547 0.303597 0.31
13.033 22.2556 0.30464 0.39
13.0644 22.4855 0.305682 0.38
13.0939 22.7154 0.305724 0.38
13.1264 22.9554 0.306768 0.36
13.1528 23.1843 0.307809 0.38
13.1843 23.4283 0.308854 0.36
13.2128 23.6692 0.308898 0.36
13.2852 23.9061 0.309948 0.35
13.3207 24.167 0.310995 0.27
11.3041 20.2599 0.296044 0.32
11.2532 20.318 0.296046 0.61
11.0949 20.1553 0.294994 0.2
11.0711 20.2664 0.296009 0.19
11.0132 20.3095 0.296007 0.41
10.9352 20.3107 0.295995 0.42
10.8932 20.3037 0.294987 0.43
10.8262 20.3269 0.29498 0.42
10.7512 20.333 0.294969 0.44
10.6813 20.3492 0.294961 0.43
10.6143 20.3713 0.294954 0.34
10.5383 20.3724 0.294942 0.53
10.4754 20.4056 0.294938 0.34
10.4263 20.3817 0.294926 0.53
10.3614 20.4078 0.29492 0.34
10.2864 20.4099 0.294909 0.45
10.2184 20.4311 0.294902 0.34
10.1414 20.4292 0.294889 0.54
10.0795 20.4623 0.294885 0.34
9.99744 20.4475 0.29487 0.53
9.93551 20.4796 0.294865 0.34
9.89248 20.4657 0.294856 0.51
9.82954 20.4978 0.294851 0.32
9.75152 20.489 0.294838 0.52
9.68557 20.5131 0.294831 0.32
9.61358 20.5193 0.294821 0.44
9.53959 20.5204 0.29381 0.43
9.47564 20.5505 0.293804 0.43
9.43663 20.5446 0.293797 0.43
9.37068 20.5677 0.293791 0.34
9.29366 20.5589 0.293777 0.54
9.23072 20.588 0.293772 0.34
9.1527 20.5782 0.293758 0.54
9.09277 20.6163 0.293755 0.34
9.01676 20.6104 0.293742 0.45
8.98478 20.6225 0.293739 0.35
8.90978 20.6196 0.293727 0.55
8.84382 20.6398 0.29372 0.34
8.7688 20.6329 0.293707 0.54
8.70787 20.669 0.293703 0.33
8.63286 20.6622 0.29369 0.52
8.56992 20.6903 0.293685 0.34
8.49893 20.6974 0.293675 0.53
8.46393 20.6995 0.29367 0.34
8.38691 20.6877 0.293656 0.53
8.32799 20.7288 0.293653 0.33
8.25398 20.7219 0.293641 0.45
8.18098 20.7211 0.293629 0.43
8.12105 20.7572 0.293625 0.35
8.04804 20.7533 0.293613 0.46
8.01606 20.7664 0.293611 0.36
7.94608 20.7735 0.292601 0.55
7.87911 20.7886 0.292593 0.34
7.80711 20.7878 0.292581 0.45
7.74316 20.8139 0.292575 0.34
7.66914 20.8031 0.292562 0.45
7.6072 20.8342 0.292557 0.35
7.5712 20.8343 0.292552 0.55
7.50322 20.8444 0.292543 0.34
7.43222 20.8455 0.292532 0.45
7.36726 20.8667 0.292525 0.35
7.29525 20.8608 0.292513 0.46
7.22828 20.8749 0.292505 0.36
7.16332 20.8961 0.292498 0.46
7.09433 20.9022 0.292488 0.35
7.05832 20.8993 0.292482 0.46
6.99538 20.9294 0.292477 0.36
6.92034 20.9095 0.292462 0.45
6.8574 20.9367 0.292456 0.39
6.80655 21.0137 0.292461 0.64
6.37176 19.5936 0.288162 0.21
6.29165 19.5378 0.28714 0.36
6.22565 19.5339 0.287129 0.35
6.19365 19.5369 0.287125 0.39
6.14276 19.593 0.287126 0.27
6.42054 21.0115 0.2924 0.29
6.34752 20.9996 0.292387 0.52
6.28256 21.0198 0.29238 0.34
6.21356 21.0209 0.292369 0.52
6.1486 21.042 0.292362 0.33
6.11158 21.0301 0.292354 0.52
6.04864 21.0622 0.29235 0.33
5.97359 21.0364 0.292334 0.53
5.91467 21.0795 0.292332 0.33
5.84669 21.0886 0.292322 0.45
5.7787 21.0948 0.292313 0.34
5.70971 21.0969 0.292302 0.52
5.68176 21.125 0.292302 0.32
5.60772 21.1031 0.292287 0.51
5.54781 21.1472 0.292285 0.34
5.47678 21.1354 0.292272 0.53
5.41182 21.1555 0.292265 0.33
5.34282 21.1566 0.292254 0.45
5.27585 21.1687 0.292246 0.44
5.2129 21.1969 0.292241 0.34
5.17487 21.1809 0.292232 0.53
5.11193 21.2091 0.292227 0.34
5.04191 21.2012 0.292214 0.54
4.97797 21.2303 0.292209 0.34
4.90795 21.2235 0.292197 0.44
4.84097 21.2306 0.292188 0.43
4.77499 21.2437 0.292179 0.41
4.73999 21.2428 0.292174 0.42
4.67301 21.2529 0.292165 0.41
4.60603 21.2621 0.292156 0.47
4.5441 21.2992 0.292152 0.3
4.47206 21.2793 0.292138 0.48
4.40812 21.3094 0.292133 0.3
4.3391 21.3006 0.29212 0.49
4.30714 21.3196 0.292118 0.32
4.23812 21.3088 0.292106 0.5
4.1752 21.3489 0.292102 0.32
4.10517 21.334 0.292089 0.52
4.04022 21.3602 0.292083 0.32
3.97223 21.3633 0.292073 0.5
3.90626 21.3804 0.292065 0.32
3.87022 21.3615 0.292057 0.5
3.80629 21.3966 0.292052 0.32
3.73727 21.3868 0.29204 0.49
3.67233 21.4179 0.292035 0.32
3.60331 21.405 0.292022 0.5
3.53735 21.4252 0.292015 0.34
3.3194 19.9196 0.286736 0.39
3.25742 19.9297 0.286728 0.41
3.2244 19.9188 0.286721 0.52
3.15424 19.8369 0.286697 0.15
3.10045 19.946 0.286706 0.38
3.03949 19.9691 0.2867 0.4
2.97548 19.9643 0.286689 0.47
2.91452 19.9834 0.286683 0.37
2.85153 19.9885 0.286674 0.44
2.78957 20.0066 0.286667 0.38
2.75857 20.0067 0.286662 0.46
2.69558 20.0118 0.286653 0.37
2.63259 20.0209 0.286645 0.39
2.56961 20.0271 0.286636 0.45
2.50764 20.0452 0.286629 0.35
2.44566 20.0543 0.286621 0.45
2.38268 20.0634 0.286612 0.42
2.3517 20.0755 0.286609 0.35
2.28769 20.0706 0.286599 0.49
