ply
format ascii 1.0
element vertex 1566
property double x
property double y
property double z
property float intensity
end_header
22.8491 -16.1442 0.769357 0.33
23.0607 -16.2096 0.772743 0.29
23.1807 -16.2014 0.773572 0.34
23.3675 -16.2456 0.776786 0.34
23.2793 -16.1231 0.77231 0.31
23.4541 -16.1562 0.775424 0.27
23.6896 -16.2347 0.779846 0.29
23.8355 -16.2426 0.781747 0.23
23.9765 -16.2466 0.782619 0.21
23.8678 -16.0569 0.776099 0.27
24.0774 -16.1123 0.77932 0.21
24.232 -16.1763 0.783166 0.23
24.6079 -16.3547 0.792208 0.34
24.8166 -16.403 0.79631 0.23
24.7646 -16.2567 0.791095 0.2
16.2766 -9.88659 0.505607 0.26
16.2611 -9.80951 0.503339 0.35
16.2874 -9.7637 0.502282 0.35
16.3383 -9.76903 0.502945 0.35
16.3547 -9.71617 0.500846 0.3
16.3621 -9.65723 0.499712 0.37
16.4302 -9.64168 0.49985 0.29
16.5013 -9.62716 0.49998 0.25
16.6919 -9.69739 0.503634 0.58
25.9519 -16.0906 0.797969 0.25
26.7258 -16.5755 0.820191 0.12
26.5981 -16.3757 0.812648 0.46
26.5331 -16.2213 0.807397 0.17
16.9268 -9.56697 0.502265 0.21
16.983 -9.54034 0.502303 0.45
26.9604 -16.1821 0.811047 0.14
18.5143 -10.434 0.545505 0.29
18.7029 -10.4873 0.548866 0.29
18.6325 -10.4048 0.545968 0.5
18.7036 -10.3803 0.545917 0.24
18.7011 -10.3083 0.54363 0.36
28.0558 -16.2923 0.825723 0.2
27.9988 -16.144 0.820514 0.21
28.5573 -16.3885 0.834203 0.14
19.4091 -10.4749 0.55663 0.48
19.1434 -10.2712 0.547191 0.17
18.4766 -9.78103 0.524961 0.49
18.5398 -9.75145 0.524886 0.31
18.8381 -9.86736 0.531453 0.21
18.9162 -9.84689 0.531415 0.53
18.9834 -9.81733 0.531306 0.31
19.0466 -9.78676 0.531213 0.25
18.9652 -9.70224 0.528371 0.34
18.9746 -9.63933 0.526147 0.44
18.978 -9.57239 0.523902 0.33
19.0562 -9.54989 0.524828 0.35
19.1264 -9.52236 0.52473 0.43
19.5632 -9.70816 0.534387 0.38
19.491 -9.59572 0.530959 0.27
19.3965 -9.50713 0.527154 0.27
19.5933 -9.55041 0.530265 0.28
19.6356 -9.50469 0.530074 0.36
19.366 -9.28301 0.520341 0.38
32.7398 -16.6977 0.889217 0.36
33.0725 -16.7589 0.894496 0.17
33.4889 -16.8646 0.902872 0.36
33.6736 -16.9027 0.905993 0.19
34.0551 -16.9852 0.912244 0.14
34.326 -17.005 0.916297 0.16
34.582 -17.0146 0.919294 0.28
35.0892 -17.1569 0.929561 0.19
35.4149 -17.199 0.934553 0.13
35.661 -17.1976 0.937433 0.14
35.8099 -17.2096 0.939383 0.34
23.1754 -10.5204 0.599397 0.18
23.2248 -10.4648 0.598966 0.18
23.1645 -10.3534 0.594456 0.34
36.9019 -17.2397 0.952635 0.11
23.3071 -10.2644 0.593624 0.39
37.4918 -17.2655 0.961082 0.19
37.8984 -17.3311 0.967814 0.1
38.1232 -17.3736 0.971672 0.18
23.8159 -10.1517 0.597246 0.19
38.7849 -17.2809 0.976355 0.13
39.3322 -17.4035 0.986923 0.17
39.719 -17.446 0.992403 0.16
23.9165 -9.91548 0.591097 0.29
23.8951 -9.82436 0.588623 0.18
24.1469 -9.86098 0.593145 0.18
40.9557 -17.521 1.00924 0.11
24.4601 -9.84203 0.596135 0.16
24.3649 -9.71745 0.591682 0.52
24.5838 -9.73388 0.594117 0.22
25.0142 -9.84364 0.602448 0.26
24.7741 -9.69512 0.595793 0.14
43.1848 -17.7095 1.04169 0
43.4461 -17.6722 1.04379 0
44.3955 -17.9313 1.06341 0
44.6099 -17.8687 1.06445 0
45.4208 -18.0579 1.07899 0
45.9345 -18.1162 1.08767 0
46.1724 -18.1368 1.09102 0
46.4328 -18.0845 1.09285 0
46.9256 -18.1277 1.09944 0
47.4643 -18.1862 1.10792 0
48.0329 -18.2528 1.11729 0
48.1607 -18.1387 1.11613 0
48.9499 -18.2868 1.1301 0
49.4682 -18.4081 1.1399 0
50.384 -18.598 1.15655 0
50.886 -18.6213 1.1627 0
51.4538 -18.6659 1.17168 0
51.7243 -18.5937 1.17306 0
52.3959 -18.6711 1.18375 0
52.8869 -18.6773 1.18969 0
53.6194 -18.77 1.20213 0
53.9263 -18.792 1.20592 0
57.3198 -19.8487 1.27724 0
57.4548 -19.7036 1.27545 0
57.5569 -19.5464 1.27272 0
57.9214 -19.4817 1.27545 0
58.4126 -19.4599 1.28187 0
58.8121 -19.4025 1.28543 0
58.7499 -19.2822 1.28177 0
61.9035 -20.1654 1.34497 0
61.7782 -19.9157 1.3375 0
61.8703 -19.7403 1.33353 0
62.5513 -19.7597 1.34309 0
63.6086 -19.8986 1.36061 0
63.8844 -19.7774 1.36106 0
64.5838 -19.8969 1.37328 0
67.3043 -20.3284 1.41996 0
45.4347 -13.2733 0.954938 0
68.0619 -20.1184 1.4247 0
44.8198 -12.7925 0.934436 0
44.8088 -12.6445 0.93084 0
45.7935 -12.8688 0.949534 0
44.0246 -12.0555 0.905815 0
45.7485 -12.4156 0.937683 0
45.7545 -12.2717 0.934018 0
49.3912 -13.1561 1.00413 0
44.3798 -11.5949 0.899424 0
52.0328 -12.8263 1.03165 0
52.6937 -12.4147 1.03155 0
52.8865 -12.296 1.03075 0
77.2714 -14.1396 1.40868 0
77.2393 -14.0124 1.40564 0
77.2359 -13.7694 1.40026 0
77.2695 -13.5347 1.39471 0
77.4022 -12.8337 1.38184 0
77.4558 -12.6021 1.37718 0
77.5115 -12.4905 1.37568 0
78.7633 8.37964 0.421754 0.64
78.9483 8.52042 0.421622 0
73.478 9.60347 0.367518 0
72.8298 9.73973 0.36056 0
72.0956 9.86059 0.354616 0
72.003 10.0692 0.350615 0
72.0485 10.2978 0.347073 0
72.074 10.5237 0.343753 0
72.0996 10.7505 0.340416 0
72.1464 10.8691 0.338861 0
72.1829 11.0979 0.335395 0
72.2155 11.3266 0.331962 0
67.8496 10.8296 0.31116 0
71.7912 12.4843 0.310542 0
63.2692 11.1478 0.276373 0
62.7449 11.2463 0.272049 0
62.2315 11.3437 0.266651 0
61.703 11.4352 0.262488 0
61.1786 11.5246 0.257327 0.08
60.9268 11.5703 0.254641 0.16
60.9472 11.7641 0.251946 0.17
60.9765 11.9599 0.24914 0.17
60.9998 12.1547 0.246402 0.17
61.0261 12.3516 0.243603 0.17
61.0615 12.5493 0.240709 0.17
61.0748 12.7442 0.238055 0.17
61.1155 12.8489 0.236806 0
56.7197 12.0641 0.220488 0
61.1632 13.2436 0.231231 0.11
61.1975 13.4443 0.228292 0.25
61.2389 13.6471 0.226257 0
61.2312 13.8381 0.222852 0
61.1955 14.0233 0.219792 0.06
60.9257 14.0561 0.218493 0
60.5633 14.1605 0.214681 0
59.9615 14.2045 0.210005 0.12
59.6082 14.3058 0.206173 0
59.1927 14.3905 0.202171 0
49.9138 12.1931 0.176086 0
51.9347 12.8777 0.178445 0
51.535 12.9363 0.175782 0
51.1689 12.9207 0.173182 0
50.8383 12.9949 0.170648 0
50.4978 13.0642 0.16729 0
50.075 13.109 0.164075 0.09
49.8206 13.1967 0.161648 0.2
49.8217 13.3566 0.158733 0.26
49.8388 13.5215 0.156592 0.26
49.8774 13.6122 0.155615 0.26
49.9056 13.7801 0.153327 0.26
49.9217 13.9459 0.151176 0.25
49.9488 14.1147 0.148879 0.25
46.4474 13.221 0.140924 0
46.3873 13.3524 0.138049 0.1
50.0092 14.6183 0.143216 0.16
50.0509 14.712 0.142159 0
49.9818 14.8535 0.139178 0.08
50.0932 15.0507 0.137646 0.16
50.1204 15.2235 0.135276 0.16
50.1375 15.3924 0.133062 0.16
50.1326 15.5555 0.131142 0.09
50.0495 15.693 0.128351 0.18
49.7955 15.6907 0.126556 0.19
49.5049 15.7566 0.124832 0.39
49.1892 15.8127 0.121501 0.23
48.8666 15.8648 0.119301 0.18
48.5729 15.9248 0.116711 0.4
48.2552 15.9749 0.114506 0.23
47.9446 16.0259 0.111224 0.19
47.6935 16.0156 0.110549 0.41
47.3828 16.0636 0.108321 0.23
47.1031 16.1205 0.105669 0.23
46.7743 16.1577 0.102793 0.17
46.5197 16.2203 0.100822 0.16
46.2811 16.2869 0.0986437 0.14
39.3337 13.8281 0.0904584 0.13
39.1973 13.907 0.0881872 0.16
43.9976 15.8051 0.0918377 0.26
43.752 15.8587 0.089955 0.27
43.5013 15.9094 0.0881688 0.28
43.2356 15.9521 0.0856545 0.28
42.9959 16.0037 0.083758 0.29
42.7281 16.0425 0.0813333 0.28
42.4824 16.0891 0.0795781 0.29
42.2593 16.0706 0.0788143 0.29
41.9975 16.1083 0.0763576 0.3
41.7939 16.1677 0.0750129 0
35.3118 13.6128 0.0706108 0
35.2184 13.6924 0.0689603 0
34.6684 13.698 0.0655405 0
34.6537 13.7511 0.0657004 0
34.1056 13.7488 0.0624095 0
34.0954 13.8608 0.0604611 0
33.5623 13.8574 0.0580624 0
33.525 13.9566 0.0565774 0
33.0276 13.9039 0.0547694 0
32.9842 13.9982 0.0534258 0
32.4851 13.9945 0.0507418 0
32.3856 14.0612 0.0493785 0
32.3171 14.1426 0.0484816 0.16
32.8062 14.4334 0.0470367 0.19
32.7227 14.5089 0.0463749 0.19
32.6301 14.5805 0.0448618 0.2
32.3941 14.5801 0.0438791 0.55
32.431 14.7138 0.0421352 0.14
32.494 14.8614 0.0409179 0.3
32.5049 14.9834 0.0396108 0.36
32.5307 15.1132 0.0380321 0.35
32.5683 15.1909 0.0373002 0.35
32.5811 15.3148 0.0359399 0.33
32.599 15.4417 0.034483 0.35
32.6189 15.5716 0.0329547 0.34
32.6307 15.6965 0.0315845 0.32
32.6556 15.8293 0.0309594 0.49
35.5773 17.5039 0.0266654 0.24
35.6169 17.5906 0.0257527 0.2
35.6469 17.7395 0.024794 0.28
32.9496 16.4104 0.0259016 0.21
32.8129 16.4583 0.0241951 0.12
32.7676 16.5556 0.0228137 0.28
32.7774 16.6835 0.0224055 0.31
32.8104 16.8253 0.0205494 0.47
32.8259 16.8962 0.0201297 0
32.7916 17.0014 0.0185102 0
32.678 17.0602 0.0174101 0
32.3606 17.0033 0.016146 0.07
27.9665 14.6965 0.0204605 0.24
27.8467 14.7323 0.0198299 0.18
32.1667 17.3236 0.0119782 0.11
32.261 17.5029 0.0109174 0.16
32.1544 17.5647 0.00970398 0.42
31.9514 17.568 0.00837145 0.23
31.8197 17.6129 0.00767756 0.32
31.6618 17.6409 0.00651178 0.32
31.508 17.6709 0.00527594 0.33
31.3809 17.6558 0.00563331 0.33
31.2291 17.6848 0.00439896 0.34
31.0662 17.7069 0.0033844 0.34
30.9194 17.7379 0.00207165 0.34
30.7676 17.7659 0.00185533 0.36
30.6168 17.7929 0.000648962 0.35
30.4619 17.8159 -0.000450869 0.36
30.3538 17.8076 -0.000380535 0.36
30.199 17.8297 -0.00146217 0.34
30.0542 17.8576 -0.002737 0.33
29.9144 17.8886 -0.00310877 0.34
29.7585 17.9066 -0.00410913 0.36
29.6217 17.9385 -0.00552399 0.36
29.4708 17.9585 -0.00560301 0.36
29.329 17.9845 -0.00686663 0.36
29.2188 17.9702 -0.00667008 0.36
29.085 18.0001 -0.00807377 0.33
28.9412 18.023 -0.00826611 0.34
28.8234 18.0628 -0.00898639 0.48
28.5509 17.9936 -0.0104094 0.18
28.5286 18.0978 -0.0111116 0.35
28.3948 18.1247 -0.0114607 0.36
28.2947 18.1133 -0.0124026 0.36
28.1549 18.1343 -0.0125921 0.32
28.022 18.1592 -0.013913 0.34
28.1515 18.3723 -0.0148871 0
23.726 15.2767 -0.00297677 0
23.597 15.2836 -0.00400328 0
23.4811 15.2984 -0.00428482 0
23.398 15.2869 -0.00436953 0.07
23.2922 15.3086 -0.00486253 0.14
23.1773 15.3224 -0.00613408 0
23.0855 15.354 -0.00592696 0
23.0389 15.4183 -0.00669873 0
22.8968 15.4103 -0.00734283 0
22.7819 15.422 -0.00757807 0
22.6566 15.3749 -0.00765423 0
22.609 15.4372 -0.00838119 0
22.5936 15.5253 -0.00985038 0
22.4756 15.5331 -0.00998759 0
22.3356 15.522 -0.0105938 0
22.2387 15.5447 -0.0111806 0.04
22.0624 15.5028 -0.0109199 0
22.2417 15.6976 -0.0119855 0
22.0695 15.6588 -0.0128129 0
21.861 15.5892 -0.0127733 0
21.9733 15.7804 -0.0142037 0
21.5858 15.562 -0.0129368 0
21.518 15.6055 -0.0141495 0
21.7873 15.9297 -0.0153313 0
21.7598 16.0079 -0.0165176 0
21.3196 15.6868 -0.0149372 0
21.5084 15.9466 -0.016263 0
21.546 16.1823 -0.0188656 0.16
21.4833 16.2307 -0.0192116 0.33
21.3925 16.2553 -0.0198851 0.52
18.6757 13.9764 -0.00935698 0.32
18.5965 13.9509 -0.00922013 0.28
18.5076 13.9605 -0.00963712 0.3
18.4508 13.9979 -0.00983301 0.38
18.3981 14.0382 -0.0101171 0.32
18.3363 14.0706 -0.0111798 0.36
18.3128 14.1388 -0.0112176 0.34
18.2832 14.201 -0.0120956 0.36
18.2875 14.249 -0.012004 0.39
18.262 14.3152 -0.0129884 0.29
18.2173 14.3635 -0.0134854 0.38
18.2441 14.4783 -0.0137994 0.32
21.1788 17.3278 -0.0285472 0.3
21.2047 17.4606 -0.0301805 0.53
21.2024 17.5677 -0.0301054 0.27
24.3218 20.6659 -0.0469447 0.25
21.5972 18.1131 -0.0333734 0.32
21.4691 18.1039 -0.0341167 0.13
21.3752 18.1255 -0.0347104 0.27
21.3146 18.1799 -0.0351825 0.37
21.3315 18.3108 -0.0357041 0.36
21.3403 18.4348 -0.0370308 0.38
21.2676 18.4773 -0.0371836 0
21.3758 18.6436 -0.0381249 0
21.3584 18.7427 -0.038778 0
21.3824 18.8845 -0.0395587 0
21.3621 18.9827 -0.0411681 0
21.0043 18.734 -0.0396063 0
20.9115 18.7567 -0.0402267 0
20.9768 18.9412 -0.0411351 0
21.0733 19.1616 -0.0429597 0
20.7157 19.085 -0.0425239 0.55
20.641 19.1245 -0.043605 0.2
20.6217 19.2246 -0.0442595 0.22
20.56 19.279 -0.0447231 0.4
16.8782 15.3905 -0.0237397 0.29
16.8292 15.3848 -0.024219 0.39
16.7966 15.446 -0.0240538 0.41
20.1881 19.2956 -0.0448563 0.18
20.1093 19.3291 -0.0457945 0.36
20.0134 19.3447 -0.046262 0.42
19.9266 19.3683 -0.0459511 0.35
19.8287 19.38 -0.0463291 0.41
19.7747 19.3793 -0.0468576 0.36
19.6787 19.392 -0.0462707 0.41
19.5808 19.4026 -0.0466304 0.4
19.494 19.4252 -0.047301 0.36
19.398 19.4358 -0.0476775 0.41
19.3061 19.4515 -0.0471789 0.36
19.2213 19.475 -0.0478845 0.37
19.1572 19.4615 -0.0480922 0.42
19.0723 19.483 -0.0477616 0.36
18.9794 19.4957 -0.0481997 0.37
18.8925 19.5152 -0.0488157 0.37
18.7966 19.5239 -0.048156 0.41
18.7107 19.5435 -0.0487804 0.36
18.6198 19.5571 -0.0492535 0.38
18.5617 19.5475 -0.0485846 0.37
18.4758 19.5661 -0.0491907 0.42
18.394 19.5896 -0.0499216 0.31
18.3081 19.6072 -0.0495097 0.57
18.2182 19.6198 -0.0499729 0.16
18.1222 19.6234 -0.0502219 0.38
18.0343 19.639 -0.0497568 0.38
17.9494 19.6566 -0.0503532 0.38
17.8923 19.645 -0.050656 0.42
17.8175 19.6745 -0.0505551 0.32
17.7326 19.691 -0.0511332 0.55
17.569 19.6041 -0.0501617 0.2
17.5608 19.7202 -0.0512 0.36
17.4679 19.7248 -0.0514923 0.38
17.385 19.7424 -0.0511057 0.38
17.3289 19.7308 -0.0514169 0.37
17.247 19.7493 -0.0510568 0.38
17.1621 19.7639 -0.0515985 0.38
17.0752 19.7725 -0.0510142 0.39
16.9953 19.793 -0.0517072 0.39
16.9104 19.8046 -0.0521942 0.38
16.8315 19.8261 -0.051914 0.38
16.7795 19.8185 -0.0523317 0.39
16.6915 19.8251 -0.0517026 0.39
16.6066 19.8356 -0.0521714 0.39
16.5307 19.8592 -0.0519528 0.39
16.4488 19.8737 -0.0525196 0.38
16.3699 19.8912 -0.0521665 0.39
16.289 19.9078 -0.0527781 0.38
16.2112 19.9263 -0.0524516 0.39
16.1571 19.9127 -0.0527433 0.39
16.0762 19.9272 -0.0523187 0.38
15.9932 19.9378 -0.0528042 0.39
15.9083 19.9454 -0.0522186 0.39
15.8294 19.9609 -0.0528288 0.39
15.7515 19.9784 -0.0524841 0.4
15.6746 19.9969 -0.0531657 0.4
15.6266 19.9903 -0.0526354 0.41
15.5477 20.0048 -0.0532275 0.39
15.4698 20.0213 -0.0528645 0.41
15.3909 20.0348 -0.0524385 0.41
15.3089 20.0444 -0.0529143 0.41
15.23 20.0579 -0.0524882 0.4
15.1551 20.0764 -0.0531867 0.39
15.0732 20.084 -0.0526262 0.4
15.0292 20.0823 -0.0532203 0.41
14.9513 20.0948 -0.0527845 0.41
14.8744 20.1113 -0.0534297 0.4
14.7995 20.1278 -0.053092 0.39
14.7155 20.1314 -0.0534416 0.4
14.6436 20.1529 -0.0532201 0.41
14.5637 20.1624 -0.0527128 0.41
14.5197 20.1577 -0.0532523 0.41
14.4397 20.1673 -0.052745 0.41
14.3658 20.1838 -0.0534154 0.41
14.2879 20.1943 -0.0529432 0.41
14.2211 20.2248 -0.0529276 0.34
14.1401 20.2293 -0.0533206 0.42
14.0622 20.2378 -0.0528119 0.42
14.0192 20.2351 -0.0523964 0.41
13.9442 20.2486 -0.0530038 0.34
13.8673 20.2591 -0.0525399 0.43
13.7965 20.2796 -0.0533084 0.35
13.7195 20.2891 -0.0528263 0.44
13.6466 20.3056 -0.0525053 0.41
13.5727 20.3201 -0.0531392 0.41
13.4988 20.3356 -0.0527916 0.33
13.4538 20.3259 -0.0522318 0.48
13.3028 20.193 -0.051531 0.36
13.1752 20.1008 -0.0507704 0.41
13.1023 20.1143 -0.0513945 0.41
13.0273 20.1228 -0.050911 0.41
12.9534 20.1333 -0.0504723 0.41
12.8886 20.1618 -0.050437 0.45
12.948 20.3594 -0.0515321 0.38
12.9765 20.5782 -0.0527496 0.38
13.007 20.802 -0.054075 0.37
13.0386 21.0328 -0.0555364 0.37
13.0692 21.2646 -0.0560078 0.37
13.0957 21.4915 -0.0573543 0.36
13.1274 21.7313 -0.0579799 0.36
13.197 21.9658 -0.0598331 0.35
13.2297 22.2137 -0.0606128 0.36
13.2604 22.4605 -0.0623572 0.34
13.2941 22.7193 -0.0633458 0.41
9.89047 15.4885 -0.0240219 0.27
9.83552 15.4959 -0.0246877 0.3
9.79581 15.5382 -0.0241176 0.51
13.4989 23.844 -0.068519 0.17
13.5145 24.0799 -0.0699372 0.35
13.5565 24.3807 -0.0707584 0.35
13.5966 24.6794 -0.0725261 0.34
13.6397 24.9902 -0.0735379 0.39
13.6615 25.2561 -0.0745533 0.17
11.4769 20.3583 -0.0489867 0.3
11.407 20.3718 -0.0486362 0.62
11.3029 20.2125 -0.0478559 0.19
11.2909 20.3626 -0.0484804 0.31
11.2271 20.389 -0.0484172 0.38
11.1592 20.4065 -0.0481563 0.39
11.0883 20.414 -0.0476881 0.39
11.0194 20.4284 -0.0473643 0.41
10.9494 20.4389 -0.0479589 0.41
10.9145 20.4441 -0.0477563 0.41
10.8425 20.4486 -0.047225 0.41
10.7736 20.4611 -0.0468647 0.41
10.7047 20.4746 -0.0475224 0.41
10.6378 20.492 -0.04727 0.41
10.5699 20.5065 -0.0469545 0.41
10.4999 20.516 -0.0465311 0.4
10.431 20.5264 -0.0461344 0.4
10.392 20.5197 -0.0466794 0.41
10.323 20.5302 -0.0462827 0.41
10.2531 20.5387 -0.0458411 0.41
10.1882 20.5621 -0.0457148 0.42
10.1163 20.5646 -0.045147 0.41
10.0483 20.576 -0.0457767 0.42
9.98246 20.5945 -0.0455509 0.41
9.94341 20.5868 -0.0450778 0.41
9.87447 20.5952 -0.0446447 0.41
9.80961 20.6157 -0.0444637 0.39
9.74169 20.6281 -0.0441117 0.39
9.67377 20.6406 -0.0437598 0.4
9.60584 20.6521 -0.0443895 0.41
9.53895 20.6675 -0.0441006 0.39
9.46999 20.673 -0.0436127 0.41
9.43297 20.6702 -0.0432476 0.42
9.36402 20.6777 -0.0427962 0.42
9.29608 20.6882 -0.0434076 0.41
9.22815 20.6976 -0.043001 0.42
9.16329 20.7191 -0.0428382 0.42
9.09536 20.7295 -0.0424499 0.42
9.0264 20.735 -0.041962 0.41
8.99448 20.7472 -0.0419121 0.41
8.92552 20.7527 -0.0414243 0.4
8.85656 20.7582 -0.0409364 0.41
8.78963 20.7696 -0.0415744 0.41
8.72374 20.7861 -0.0413122 0.4
8.65783 20.7985 -0.040977 0.4
8.58887 20.805 -0.0405074 0.4
8.55593 20.8142 -0.0403945 0.41
8.48695 20.8167 -0.039852 0.4
8.42003 20.8282 -0.0394902 0.41
8.35311 20.8406 -0.0391466 0.41
8.28618 20.8501 -0.0387484 0.41
8.21823 20.8585 -0.0393235 0.42
8.15232 20.872 -0.0390066 0.41
8.08538 20.8804 -0.0385901 0.43
8.05039 20.8827 -0.0383329 0.43
7.98448 20.8951 -0.0379977 0.41
7.91653 20.9036 -0.037573 0.41
7.84958 20.9101 -0.0371201 0.42
7.78574 20.9335 -0.0370021 0.41
7.71673 20.933 -0.036405 0.4
7.64981 20.9444 -0.0360432 0.41
7.61583 20.9467 -0.0357944 0.41
7.5489 20.9571 -0.0354144 0.41
7.48298 20.9696 -0.036079 0.42
7.41605 20.98 -0.035699 0.41
7.34908 20.9845 -0.0352097 0.41
7.28114 20.9929 -0.0347849 0.41
7.21522 21.0054 -0.0344498 0.41
7.18124 21.0076 -0.0342009 0.41
7.11635 21.0251 -0.0339653 0.41
7.04838 21.0285 -0.0334494 0.41
6.98556 21.056 -0.0334127 0.35
6.92069 21.0744 -0.0331953 0.61
6.58515 19.6835 -0.0260738 0.22
6.51492 19.65 -0.0258668 0.35
6.44883 19.6375 -0.0260759 0.33
6.41992 19.6507 -0.0250696 0.37
6.36216 19.6861 -0.0252207 0.27
6.55091 21.107 -0.0306373 0.29
6.48498 21.1164 -0.0302475 0.47
6.417 21.1199 -0.0297316 0.37
6.3511 21.1343 -0.0294329 0.39
6.28519 21.1478 -0.0291159 0.38
6.25221 21.151 -0.0288937 0.4
6.18631 21.1655 -0.028595 0.4
6.1204 21.1779 -0.0282598 0.41
6.05344 21.1844 -0.027807 0.41
5.98649 21.1918 -0.0273723 0.41
5.92266 21.2163 -0.0272726 0.41
5.85363 21.2117 -0.0266025 0.4
5.78769 21.2212 -0.0262127 0.4
5.75577 21.2334 -0.0261629 0.4
5.68884 21.2429 -0.0257647 0.4
5.62291 21.2533 -0.0253931 0.4
5.55597 21.2618 -0.0249767 0.41
5.48903 21.2703 -0.0245603 0.41
5.42312 21.2847 -0.0242616 0.41
5.35613 21.2862 -0.0237176 0.41
5.3232 21.2964 -0.0236229 0.41
5.25729 21.3098 -0.023306 0.4
5.19031 21.3113 -0.022762 0.41
5.12549 21.3387 -0.0227086 0.39
5.05639 21.3242 -0.0218563 0.47
4.8865 20.3202 -0.0181733 0.22
4.80857 20.1848 -0.0170488 0.58
4.89063 21.3584 -0.0210647 0.35
4.82364 21.3608 -0.0205389 0.46
4.75777 21.3793 -0.0203131 0.37
4.69183 21.3887 -0.0199233 0.38
4.62386 21.3932 -0.0194256 0.45
4.55798 21.4106 -0.0191816 0.35
4.49106 21.4211 -0.0178018 0.43
4.42517 21.4366 -0.0175213 0.36
4.39114 21.4328 -0.0171632 0.45
4.32423 21.4463 -0.0168378 0.36
4.25725 21.4487 -0.0163121 0.44
4.19138 21.4682 -0.0161045 0.37
4.12444 21.4766 -0.0156881 0.45
4.05648 21.4831 -0.0152268 0.37
3.99059 21.4986 -0.0149463 0.45
3.95663 21.5038 -0.0147522 0.41
3.88968 21.5113 -0.0143175 0.34
3.82274 21.5207 -0.0139193 0.48
3.75588 21.5402 -0.0127035 0.25
3.68772 21.5166 -0.0126955 0.59
3.5659 20.0863 -0.00767701 0.26
3.50157 20.0367 -0.00622893 0.38
3.47195 20.093 -0.00599782 0.59
3.40631 19.9994 -0.00573924 0.25
3.3434 20.0128 -0.0054475 0.18
3.28274 20.0622 -0.00482864 0.41
3.21982 20.0737 -0.00450044 0.42
3.15688 20.0831 -0.00413581 0.42
3.09396 20.0935 -0.0037894 0.36
3.03105 20.106 -0.00247963 0.44
3.00012 20.1162 -0.00240173 0.41
2.93715 20.1206 -0.00194598 0.4
2.87426 20.1371 -0.0017089 0.36
2.81084 20.2215 -0.00170266 0.39
2.74795 20.237 -0.000447583 0.46
2.68401 20.2464 -7.45362e-05 0.43
2.62103 20.2478 0.000435878 0.4
2.58912 20.262 0.000449293 0.45
2.52525 20.2805 0.000658303 0.29
2.4622 20.2739 0.00131447 0.55
2.39906 20.2524 0.00224398 0.19
2.33425 20.2808 0.0022792 0.64
2.27192 20.2312 0.00371047 0.39
2.20889 20.2277 0.00431197 0.3
2.145 20.2431 0.00457569 0.42
2.11398 20.2403 0.00489047 0.45
2.04996 20.2378 0.00548215 0.35
1.98612 20.2612 0.00560007 0.37
1.92209 20.2566 0.00622818 0.42
1.85911 20.2591 0.00672038 0.43
1.79505 20.2505 0.00742137 0.33
1.72939 20.299 0.00810037 0.36
1.69738 20.2972 0.0084053 0.44
1.6325 20.3156 0.00862274 0.29
1.56764 20.3351 0.00982181 0.37
1.50369 20.3415 0.0102495 0.39
1.43872 20.347 0.0107038 0.37
1.37379 20.3564 0.0110852 0.39
1.30892 20.3739 0.0123206 0.4
1.27691 20.3731 0.0126074 0.4
1.21108 20.3986 0.0127056 0.32
1.14613 20.405 0.0131417 0.49
1.08393 20.3754 0.0142086 0.3
1.019 20.3859 0.0145718 0.39
0.953125 20.4043 0.0147976 0.34
0.886252 20.4218 0.0160498 0.45
0.820344 20.4353 0.0163667 0.34
0.786509 20.4585 0.0172327 0.36
0.720533 20.462 0.0177319 0.3
0.653672 20.4824 0.0179296 0.54
1.12301 15.5785 0.0280068 0.23
1.0759 15.5609 0.0287292 0.33
1.02219 15.6032 0.0294168 0.48
0.406005 20.3841 0.0208245 0.2
0.374926 20.3724 0.0213033 0.34
0.312808 20.3548 0.0221515 0.31
0.252527 20.3142 0.0224022 0.34
0.164756 20.4928 0.0229051 0.36
0.103538 20.4602 0.0240182 0.34
0.0404403 20.4457 0.0248202 0.38
-0.0140631 20.372 0.0256218 0.3
-0.103869 20.5467 0.0252145 0.42
-0.118745 20.4178 0.0266827 0.3
-0.202862 20.5464 0.0270632 0.42
-0.249731 20.4197 0.0277637 0.38
-0.313794 20.4101 0.0284829 0.39
-0.389344 20.4757 0.028936 0.36
-0.465873 20.5442 0.0293429 0.37
-0.505985 20.3815 0.0306406 0.33
-0.532255 20.3426 0.0305695 0.36
-0.612614 20.4352 0.0315725 0.3
-0.672839 20.4016 0.0326954 0.4
-0.766739 20.5623 0.0325768 0.34
-0.84141 20.6098 0.0333495 0.36
-0.91033 20.6203 0.0347461 0.38
-0.932005 20.3764 0.0353607 0.21
-1.05396 20.6743 0.0359885 0.48
-1.04645 20.4562 0.0368857 0.32
-1.11245 20.4557 0.0374577 0.36
-1.20166 20.5713 0.0381171 0.31
-1.30154 20.735 0.0379942 0.36
-1.34049 20.5963 0.0388461 0.43
-1.42297 20.6709 0.0401938 0.41
-1.48225 20.6303 0.0404362 0.26
-1.54431 20.7657 0.0415043 0.43
-1.58227 20.625 0.0423843 0.32
-1.61343 20.4571 0.0426978 0.35
-1.72213 20.6459 0.0431947 0.34
-1.77944 20.6003 0.0445111 0.29
-1.89889 20.8252 0.0454441 0.4
-1.92514 20.6423 0.0459889 0.41
-1.94362 20.5725 0.0464156 0.22
-2.02618 20.636 0.0469639 0.46
-2.08252 20.5854 0.0483631 0.23
-2.15246 20.5949 0.0487864 0.34
-2.28176 20.8428 0.0493843 0.36
-2.32643 20.7441 0.0505576 0.39
-2.39057 20.7236 0.0514772 0.27
-2.47028 20.7651 0.0524012 0.41
-2.48871 20.7023 0.0527004 0.4
-2.55478 20.6917 0.0534546 0.31
-2.67251 20.8756 0.0541181 0.31
-2.7162 20.7749 0.0553194 0.41
-2.81935 20.8986 0.0559505 0.3
-2.89716 20.9251 0.057131 0.36
-2.93887 20.8224 0.0573522 0.36
-2.97373 20.6956 0.0589517 0.29
-3.08389 20.9634 0.0590257 0.39
-3.13732 20.9008 0.0596186 0.21
-3.16632 20.755 0.0605142 0.42
-3.25097 20.8036 0.0623524 0.35
-3.34933 20.8973 0.0624883 0.3
-3.4653 21.0461 0.0637728 0.3
-3.5412 21.0606 0.0651552 0.39
-3.58015 21.0679 0.0653549 0.37
-3.66681 21.1165 0.06621 0.4
-3.72414 21.0689 0.0665632 0.27
-3.80986 21.1095 0.0675557 0.44
-3.80257 20.8584 0.0690543 0.31
-3.86772 20.8369 0.0700006 0.26
-3.9642 20.9126 0.0704477 0.48
-4.0286 20.999 0.0714257 0.34
-4.07711 20.9244 0.0721952 0.27
-4.2089 21.1003 0.073122 0.3
-4.29954 21.1519 0.073956 0.32
-4.37647 21.1615 0.0754379 0.48
-4.45048 21.159 0.0761135 0.31
-4.48917 21.0582 0.0772729 0.22
-4.63868 21.2733 0.0786398 0.37
-4.68353 21.2956 0.0786165 0.49
-4.75657 21.2891 0.0803564 0.38
-4.82078 21.2576 0.0814765 0.14
-4.9272 21.3423 0.0818435 0.53
-4.99336 21.3178 0.0828529 0
-24.5098 64.2862 0.186599 0
-24.4821 63.9429 0.187598 0
-13.9109 38.5301 0.140161 0
-14.0687 38.5612 0.14194 0
-24.8433 62.6013 0.198044 0.13
-13.7254 37.1437 0.142765 0.25
-13.8782 37.1727 0.145538 0.19
-13.9384 36.9951 0.147277 0.37
-13.965 36.9013 0.148208 0.11
-14.5779 37.9297 0.152748 0.2
-14.8254 38.1525 0.15481 0
-25.107 59.8649 0.213996 0.1
-4.61196 15.8335 0.100222 0.2
-4.6483 15.7828 0.101453 0.37
-4.69056 15.745 0.101498 0.25
-4.68015 15.659 0.101973 0.2
-4.68985 15.556 0.102926 0.55
-4.80311 15.6638 0.103932 0.11
-26.0971 58.8247 0.233323 0.14
-15.9146 37.8261 0.173016 0.32
-15.9669 37.6354 0.174925 0.16
-15.9925 37.3936 0.176536 0
-26.17 57.3731 0.241313 0.07
-26.251 57.0876 0.243188 0.17
-26.3111 56.765 0.24656 0.12
-26.3743 56.4504 0.248813 0.16
-26.4266 56.1207 0.251246 0.12
-26.4857 55.8061 0.253464 0.17
-26.5537 55.5115 0.255394 0.28
-26.6928 55.3535 0.25845 0
-27.5591 56.7617 0.265249 0
-26.9646 55.2354 0.26391 0
-27.0039 54.8956 0.265416 0.04
-26.7292 53.9856 0.265606 0.16
-26.7901 53.696 0.268386 0.12
-26.8363 53.3833 0.270459 0.17
-26.9021 53.1098 0.272989 0.29
-26.8748 52.8655 0.273192 0
-27.0197 52.7355 0.276788 0.12
-27.2831 52.8134 0.280617 0.21
-27.5189 52.8401 0.284142 0.18
-27.7577 52.8707 0.287618 0.21
-27.9896 52.8884 0.291273 0.19
-28.2373 52.9311 0.295606 0.22
-28.4731 52.9508 0.299258 0.18
-28.6405 53.044 0.300991 0.22
-28.8714 53.0526 0.304801 0.19
-29.1211 53.0913 0.309224 0.21
-29.358 53.107 0.312958 0.18
-29.6146 53.1528 0.316312 0.13
-29.8515 53.1665 0.320082 0.17
-30.1062 53.2043 0.324565 0.3
-30.2756 53.2925 0.326405 0.2
-30.5205 53.3112 0.331151 0.19
-30.7782 53.35 0.334641 0.22
-15.9972 29.6919 0.214473 0.11
-16.0748 29.6094 0.215632 0.15
-26.1978 45.135 0.301845 0.19
-16.314 29.5741 0.220311 0.18
-16.2504 29.3746 0.220392 0.35
-16.3705 29.3575 0.222727 0.17
-16.2442 28.9645 0.222788 0.35
-16.4316 29.0518 0.224799 0.24
-16.3201 28.688 0.225457 0.14
-16.8985 29.3532 0.231302 0.36
-16.8563 29.0938 0.231653 0.19
-17.012 29.1259 0.234397 0.25
-16.9186 28.8913 0.233864 0.14
-16.8051 28.5334 0.234397 0.32
-16.8915 28.468 0.236321 0.14
-17.379 28.9765 0.241237 0.33
-17.0367 28.296 0.239682 0.19
-17.0132 28.0749 0.240499 0.25
-17.0511 27.9421 0.242233 0.28
-17.2994 28.1979 0.244702 0.3
-17.4343 28.1988 0.246835 0.25
-27.3977 41.7702 0.341187 0
-27.5759 41.7405 0.345245 0
-36.9902 54.2949 0.435394 0.09
-37.2571 54.3017 0.440542 0.09
-29.5719 43.6107 0.368276 0.09
-29.7096 43.5096 0.371284 0.08
-38.0429 54.4653 0.453265 0
-38.3406 54.5054 0.458073 0.07
-25.8593 37.744 0.338217 0
-26.9016 38.8605 0.349816 0
-27.0649 38.8206 0.35293 0
-27.4749 39.0995 0.359357 0
-26.416 37.4909 0.349556 0
-26.5734 37.5711 0.352442 0.07
-26.8408 37.6679 0.355959 0
-27.9042 38.7655 0.36908 0
-28.0466 38.6955 0.371565 0
-28.4092 38.8991 0.376956 0
-26.8423 36.7119 0.362339 0
-26.9887 36.6579 0.365566 0
-27.8827 37.5153 0.376607 0
-27.9787 37.512 0.377486 0
-27.9367 37.2217 0.379401 0
-27.13 36.0169 0.372414 0
-29.7609 38.9277 0.400951 0
-31.662 40.9342 0.422697 0
-44.1034 55.3342 0.557108 0
-28.5825 36.8112 0.393358 0
-28.3501 36.4235 0.391421 0
-28.8785 36.8053 0.398987 0
-27.7595 35.0613 0.390135 0
-27.8959 34.9952 0.392497 0
-27.9927 34.8839 0.395343 0.11
-26.7726 33.2942 0.383827 0
-25.6382 31.9181 0.37216 0.07
-26.7142 32.9147 0.385222 0.11
-26.9161 32.9311 0.388643 0.31
-26.9294 32.7382 0.390261 0.21
-26.9963 32.6067 0.39222 0.34
-26.965 32.3675 0.393299 0.19
-26.9941 32.1957 0.395668 0.24
-26.8109 31.7973 0.394342 0.16
-26.6746 31.5524 0.393631 0
-26.6074 31.2839 0.394936 0.11
-26.4767 30.9499 0.393889 0.1
-27.2266 31.5423 0.404517 0.14
-27.4255 31.5517 0.40804 0.3
-27.4507 31.3798 0.409376 0
-29.1658 32.9481 0.4315 0.04
-27.0267 30.6508 0.407007 0
-27.87 31.3198 0.418039 0.12
-27.8237 31.0765 0.419065 0.1
-27.9452 31.0043 0.42241 0.14
-27.8273 30.6925 0.422071 0.17
-27.923 30.5961 0.424635 0.17
-27.9163 30.3981 0.426176 0.16
-27.5998 29.8978 0.423567 0.33
-27.6212 29.825 0.425073 0.23
-27.5063 29.5261 0.424523 0.31
-27.5672 29.4006 0.426322 0.26
-27.6131 29.2609 0.428251 0
-27.7773 29.234 0.432137 0
-27.6344 28.916 0.431697 0
-27.2949 28.4136 0.428931 0
-28.1042 29.0853 0.439623 0
-28.1263 28.9235 0.441751 0
-28.1653 28.7788 0.443712 0
-35.7312 35.5697 0.538806 0
-36.2216 35.7962 0.54687 0
-35.7521 35.1439 0.54272 0
-34.735 34.0036 0.531769 0
-32.1903 31.5034 0.501507 0
-33.1401 32.2542 0.51396 0
-33.3333 32.2236 0.518162 0
-29.2527 28.4115 0.467648 0.08
-27.5801 26.7615 0.447371 0
-29.7491 28.488 0.477486 0
-32.5167 30.7097 0.513705 0.05
-32.3749 30.3937 0.514237 0.13
-32.624 30.5115 0.51822 0
-32.6631 30.3518 0.520455 0
-29.3718 27.3663 0.478648 0.11
-29.3332 27.16 0.480067 0.22
-29.4279 27.0667 0.482568 0.1
-29.5464 26.9935 0.484907 0.16
-29.7553 26.995 0.48966 0.31
-30.0244 27.1309 0.493483 0.22
-30.1091 27.0275 0.496083 0.3
-29.967 26.7395 0.496105 0.22
-30.0328 26.6209 0.498818 0
-29.9316 26.3702 0.49851 0
-30.1565 26.3798 0.503252 0.11
-29.8145 25.9394 0.500339 0.11
-30.3362 26.2691 0.507794 0.42
-29.6919 25.5935 0.500578 0.11
-30.2539 25.8685 0.50937 0.12
-30.2392 25.6894 0.510498 0.24
-30.2562 25.5365 0.51242 0.19
-29.7401 24.9768 0.50719 0.2
-29.7989 24.8592 0.508827 0.39
-30.4227 25.1687 0.51952 0.16
-30.1885 24.911 0.516206 0.36
-30.2731 24.8116 0.519732 0.11
-30.8433 25.0747 0.528811 0.14
-32.5128 26.1436 0.553617 0
-32.71 26.117 0.55778 0
-32.7728 25.9914 0.560596 0.11
-30.5084 24.1813 0.530187 0.18
-30.7099 24.2467 0.533715 0.12
-30.3817 23.8513 0.5301 0.17
-30.4773 23.762 0.533537 0.22
-31.2057 24.1202 0.545236 0.17
-30.965 23.7915 0.543157 0.14
-30.9283 23.6072 0.544191 0.17
-30.7014 23.2926 0.541974 0.24
-30.7636 23.2581 0.544132 0.24
-30.9389 23.2223 0.548274 0.16
-31.7302 23.6059 0.561046 0.13
-31.9064 23.5672 0.565251 0.14
-32.7704 23.9893 0.578943 0.12
-16.4668 12.7582 0.343071 0.99
-16.3596 12.6444 0.342224 0.99
-16.3452 12.5493 0.342829 0.99
-16.3598 12.4724 0.34335 0.99
-16.3922 12.4076 0.344803 0.89
-16.8756 12.6311 0.352862 0.39
-33.8977 23.3484 0.60919 0.1
-31.8996 21.9271 0.580985 0.16
-31.9728 21.8977 0.583144 0.21
-32.0106 21.7689 0.584805 0.21
-32.2725 21.7788 0.590857 0.14
-31.9111 21.4042 0.586583 0.11
-31.7837 21.1763 0.586637 0.25
-32.3712 21.3845 0.596861 0.14
-32.2388 21.1535 0.595928 0.14
-32.4285 21.1919 0.599847 0.15
-32.2622 20.9427 0.598957 0
-32.0332 20.6591 0.597158 0.1
-31.7513 20.3451 0.594461 0.13
-32.2294 20.4785 0.60311 0.14
-32.2712 20.3548 0.605714 0.31
-32.2563 20.1997 0.606404 0.16
-32.3369 20.0993 0.609916 0.4
-32.945 20.3726 0.620131 0.25
-33.0616 20.2894 0.623634 0
-33.3235 20.2873 0.628905 0
-38.069 22.7771 0.706104 0
-33.2758 19.8159 0.63306 0.28
-33.2319 19.6456 0.63378 0.21
-33.2045 19.5574 0.634149 0.25
-33.2145 19.4165 0.635794 0.2
-33.1866 19.2563 0.637466 0.12
-38.5227 21.9363 0.725241 0.08
-38.6842 21.8555 0.729086 0
-38.9902 21.8487 0.735817 0
-52.0907 28.463 0.950268 0
-52.0692 28.2329 0.953266 0
-51.0317 27.5935 0.937042 0.08
-39.4167 21.4837 0.749079 0.18
-32.3697 17.6295 0.637059 0.39
-32.7045 17.6569 0.644414 0
-51.276 26.6543 0.953186 0
-51.4143 26.6172 0.957035 0
-52.3336 26.8528 0.974588 0
-52.3151 26.6297 0.976484 0
-52.0913 26.3101 0.975383 0.04
-51.8625 25.9895 0.974258 0.08
-52.126 25.9033 0.981068 0.17
-34.6889 17.5531 0.690206 0.17
-34.7019 17.4152 0.691821 0.35
-34.6615 17.3249 0.692117 0.31
-34.6774 17.19 0.693703 0.3
-34.6674 17.0429 0.69529 0.3
-34.6714 16.903 0.696866 0.3
-34.6803 16.766 0.698429 0.29
-34.6882 16.6281 0.701003 0.29
-34.6722 16.481 0.702539 0.3
-34.6577 16.4039 0.702816 0.28
-34.6667 16.2679 0.704361 0.28
-34.6626 16.1259 0.705907 0.26
-34.6865 15.9971 0.708451 0.23
-34.6645 15.8489 0.709955 0.17
-34.6545 15.7069 0.71145 0.41
-34.5537 15.5272 0.710856 0
-55.4298 23.962 1.07848 0
-58.029 24.9175 1.12526 0
-58.1013 24.724 1.1294 0
-70.3319 29.4122 1.34743 0
-70.3506 29.1534 1.35129 0
-70.3773 28.8976 1.35516 0
-70.3771 28.6326 1.35797 0
-70.3919 28.3737 1.3618 0
-70.3679 28.2316 1.36318 0
-70.3656 27.9676 1.36696 0
-70.3844 27.7107 1.36978 0
-70.3991 27.4538 1.37358 0.06
-43.5391 17.0663 0.895445 0.32
-43.5432 16.9033 0.897441 0.19
-43.5398 16.8193 0.898938 0.21
-43.5389 16.6543 0.900928 0.19
-43.546 16.4924 0.90293 0.22
-43.5571 16.3335 0.905911 0.2
-43.5592 16.1705 0.90789 0.23
-43.5603 16.0075 0.90986 0.18
-43.5723 15.8486 0.912849 0
-43.5814 15.6897 0.914814 0.1
-39.1885 14.1344 0.834643 0
-43.4195 15.2315 0.916757 0
-43.709 15.1646 0.924439 0
-74.4787 18.8645 1.58537 0.11
-74.4406 18.5973 1.5889 0.27
-74.5102 18.3578 1.59384 0
-74.6197 18.1266 1.59997 0
-48.7463 -9.4632 1.46876 0
-48.7494 -9.63215 1.47186 0
-69.9077 -14.4267 2.06922 0
-69.7461 -14.6318 2.07057 0
-69.9459 -14.9104 2.08034 0
-69.9555 -15.1502 2.08578 0
-59.2694 -13.1251 1.79294 0
-60.3021 -13.5517 1.82649 0
-60.2865 -13.7557 1.83007 0
-59.37 -13.6583 1.80649 0
-59.2432 -13.8352 1.80762 0
-58.84 -13.9481 1.80024 0
-58.8754 -14.1608 1.8054 0
-58.8247 -14.3531 1.80846 0
-58.3233 -14.4386 1.79875 0
-58.2606 -14.6271 1.80164 0
-57.9438 -14.6523 1.7944 0
-58.2116 -14.9204 1.80655 0
-58.4343 -15.1787 1.81814 0
-56.4295 -14.8791 1.76462 0
-56.0142 -14.9711 1.75675 0
-55.4787 -15.0299 1.74525 0
-53.5879 -14.7305 1.69471 0
-53.1024 -14.7919 1.68469 0
-52.478 -14.7194 1.66905 0
-51.0649 -14.5236 1.63145 0
-50.6634 -14.5964 1.62436 0.07
-49.5918 -14.4801 1.59711 0.18
-49.3365 -14.5859 1.59286 0
-49.1744 -14.717 1.59286 0.06
-47.6579 -14.459 1.55125 0.14
-47.2989 -14.4415 1.54288 0.1
-46.4835 -14.3734 1.52269 0.15
-46.3915 -14.515 1.52348 0.29
-46.2423 -14.6391 1.52247 0
-45.8627 -14.6928 1.51521 0.12
-43.7949 -14.2276 1.45714 0.23
-43.6447 -14.3417 1.45593 0.11
-43.1873 -14.279 1.4439 0.16
-43.1433 -14.4243 1.44616 0.12
-42.8408 -14.4864 1.44071 0.14
-42.0332 -14.3852 1.41999 0
-41.2406 -14.2839 1.3994 0.07
-39.9209 -14.0034 1.36306 0.16
-39.6954 -14.078 1.3595 0.21
-39.6173 -14.2005 1.36006 0.14
-39.1608 -14.1208 1.34772 0.36
-38.9583 -14.1992 1.34542 0.21
-38.7679 -14.2806 1.34228 0.23
-38.3299 -14.2747 1.33244 0.2
-37.5241 -14.1365 1.31106 0.31
-37.3266 -14.2099 1.30771 0.2
-37.1432 -14.2862 1.30554 0.25
-36.426 -14.0984 1.28501 0.18
-36.2365 -14.1697 1.2827 0.34
-35.4967 -14.037 1.26198 0.18
-35.2481 -14.0818 1.25768 0.37
-34.7508 -14.0324 1.24554 0.23
-34.6484 -14.1281 1.24541 0.2
-34.1682 -14.0795 1.23344 0.38
-34.116 -14.1929 1.23405 0.22
-33.7184 -14.1067 1.2231 0.18
-33.4617 -14.1385 1.21849 0.43
-32.9423 -14.0653 1.20473 0.22
-32.7998 -14.1383 1.20385 0.29
-32.4778 -14.1396 1.19613 0.26
-32.0796 -14.1074 1.18615 0.25
-31.7496 -14.0998 1.1782 0.2
-31.5445 -14.0793 1.17308 0.45
-31.036 -13.9959 1.16023 0.25
-30.708 -13.9833 1.15221 0.28
-30.3559 -13.9588 1.14376 0.25
-30.109 -13.9765 1.13898 0.3
-30.0848 -14.0887 1.14081 0.31
-29.6644 -14.0297 1.13016 0.26
-29.4894 -14.015 1.1254 0.29
-29.2475 -14.0297 1.12061 0.29
-28.9505 -14.0188 1.11388 0.31
-28.6474 -14.003 1.10701 0.33
-28.3112 -13.9704 1.09856 0.24
-28.0703 -13.9791 1.09266 0.34
-27.8565 -13.9986 1.08919 0.31
-27.6141 -13.9464 1.08218 0.27
-27.1907 -13.8664 1.07012 0.33
-27.0781 -13.9282 1.06928 0.31
-26.7629 -13.8944 1.06199 0.28
-26.5942 -13.9286 1.05917 0.3
-26.307 -13.9047 1.05229 0.3
-25.9928 -13.866 1.04391 0.27
-25.8177 -13.8372 1.03889 0.36
-25.5064 -13.7964 1.0315 0.22
-25.4369 -13.8729 1.0313 0.37
-25.3213 -13.9267 1.03029 0.28
-24.988 -13.8701 1.02142 0.29
-24.8774 -13.9239 1.02046 0.34
-24.532 -13.8584 1.01132 0.29
-24.2658 -13.8303 1.00455 0.32
-24.1608 -13.83 1.00265 0.29
-23.9729 -13.8404 0.998235 0.23
-23.7148 -13.8132 0.992542 0.42
-23.5349 -13.8245 0.988215 0.31
-23.3319 -13.8229 0.984457 0.26
-23.17 -13.8421 0.981426 0.34
-23.0463 -13.882 0.979097 0.35
-22.8148 -13.8096 0.972811 0.26
-22.6028 -13.7982 0.967796 0.34
-22.3947 -13.7876 0.962832 0.34
-22.2549 -13.8136 0.960114 0.36
-22.0379 -13.7962 0.954947 0.26
-21.8127 -13.7728 0.949604 0.3
-21.6458 -13.781 0.946331 0.33
-21.5066 -13.753 0.942637 0.41
-21.3979 -13.7917 0.941415 0.32
-21.2812 -13.8266 0.939053 0.32
-20.9536 -13.7379 0.929652 0.3
-20.7475 -13.7174 0.924523 0.3
-20.6658 -13.77 0.924783 0.38
-20.4316 -13.7307 0.918073 0.27
-20.3229 -13.7644 0.91676 0.36
-20.2569 -13.7739 0.91537 0.28
-20.0277 -13.7355 0.90972 0.32
-19.7844 -13.6863 0.903753 0.3
-19.6716 -13.7141 0.901297 0.36
-19.5407 -13.732 0.899508 0.35
-19.4179 -13.7529 0.896841 0.36
-19.2539 -13.747 0.893337 0.26
-19.1879 -13.7545 0.891911 0.37
-18.9717 -13.7151 0.886352 0.33
-18.5657 -13.553 0.873949 0.27
-18.6255 -13.6855 0.878867 0.38
-18.4494 -13.6678 0.874044 0.26
-18.3878 -13.7222 0.874508 0.34
-18.3001 -13.7608 0.873462 0.39
-18.1698 -13.7228 0.869661 0.31
-18.0198 -13.7188 0.866312 0.36
-17.8778 -13.7189 0.863103 0.3
-17.7911 -13.7545 0.86301 0.35
-17.6501 -13.7535 0.859791 0.28
-17.5935 -13.8088 0.860315 0.33
-17.3581 -13.7425 0.853105 0.4
-17.3463 -13.7806 0.853697 0.23
-17.136 -13.7301 0.847988 0.4
-17.0502 -13.7627 0.846849 0.27
-16.87 -13.73 0.84272 0.33
-16.737 -13.729 0.839568 0.36
-16.6302 -13.7457 0.837962 0.29
-16.5102 -13.7516 0.836046 0.37
-16.3169 -13.706 0.830571 0.3
-16.261 -13.7114 0.829192 0.36
-16.1641 -13.732 0.827743 0.28
-16.0512 -13.7418 0.825959 0.36
-15.9051 -13.7249 0.822407 0.32
-15.8464 -13.7733 0.822786 0.33
-15.7677 -13.8058 0.821706 0.43
-15.6909 -13.8394 0.820662 0.28
-15.4963 -13.7388 0.814176 0.26
-15.2617 -13.6515 0.806592 0.39
-15.197 -13.6919 0.806775 0.28
-15.1333 -13.7334 0.806985 0.44
-15.0695 -13.7738 0.806177 0.29
-14.9566 -13.7756 0.804248 0.35
-14.8195 -13.7596 0.800789 0.34
-14.5849 -13.6643 0.793059 0.36
-14.5248 -13.6617 0.7925 0.32
-14.4008 -13.6516 0.78926 0.3
-14.2948 -13.6553 0.787425 0.35
-14.2613 -13.7176 0.78827 0.36
-14.1603 -13.7243 0.786532 0.38
-14.0684 -13.7389 0.785015 0.31
-13.9313 -13.7139 0.781392 0.35
-13.8733 -13.7113 0.779851 0.37
-13.8135 -13.7497 0.78004 0.31
-13.6804 -13.7277 0.776505 0.34
-13.4889 -13.6551 0.770555 0.4
-13.4121 -13.6776 0.77031 0.29
-13.3383 -13.7031 0.769145 0.28
-13.2594 -13.7237 0.767846 0.49
-13.1561 -13.6794 0.765162 0.25
-13.0632 -13.6861 0.763491 0.35
-12.9451 -13.6719 0.760228 0.37
-12.8974 -13.7173 0.760646 0.27
-12.8346 -13.7497 0.7607 0.52
-11.9934 -13.0929 0.7246 0.18
-11.8189 -13.0211 0.71981 0.29
-11.7789 -13.0274 0.718584 0.3
-11.7393 -13.0747 0.719105 0.42
-11.6976 -13.12 0.719572 0.35
-11.6921 -13.198 0.721943 0.43
-11.8948 -13.4675 0.733566 0.18
-12.1208 -13.7617 0.746838 0.32
-12.0147 -13.7505 0.74373 0.29
-11.8742 -13.6635 0.738953 0.36
-11.7158 -13.6017 0.734479 0.36
-11.6509 -13.6271 0.73339 0.37
-11.563 -13.6298 0.731688 0.27
-11.4539 -13.6115 0.729427 0.38
-11.3135 -13.5635 0.72536 0.33
-11.2246 -13.5632 0.723595 0.48
-11.201 -13.6253 0.724524 0.23
-11.166 -13.6356 0.724412 0.47
-11.0861 -13.6421 0.722851 0.22
-11.0957 -13.738 0.725675 0.33
-10.8155 -13.5471 0.714818 0.32
-10.7698 -13.5864 0.715143 0.29
-10.6747 -13.5771 0.713164 0.46
-10.6189 -13.6064 0.713222 0.36
-10.6323 -13.6633 0.71437 0.29
-10.357 -13.4684 0.703482 0.3
-10.2962 -13.4908 0.703371 0.45
-10.2978 -13.5787 0.705983 0.38
-10.3164 -13.6826 0.709029 0.24
-10.0895 -13.5322 0.700364 0.45
-10.1031 -13.6321 0.703295 0.32
-10.1074 -13.68 0.705203 0.24
-9.87842 -13.5227 0.696393 0.31
-9.85181 -13.5799 0.697205 0.39
-9.76678 -13.5745 0.695383 0.41
-9.6062 -13.4856 0.690401 0.35
-9.48894 -13.4435 0.686636 0.36
-9.46131 -13.4987 0.687403 0.33
-9.31784 -13.4257 0.682856 0.35
-9.31308 -13.4627 0.683488 0.47
-9.39425 -13.6391 0.690384 0.18
-9.29711 -13.6168 0.688151 0.49
-9.24328 -13.6432 0.688171 0.41
-9.15117 -13.6248 0.686053 0.3
-9.12657 -13.684 0.686919 0.25
-8.9478 -13.5663 0.680257 0.37
-8.8967 -13.5497 0.67852 0.36
-8.79449 -13.5164 0.676045 0.35
-8.73863 -13.5378 0.675957 0.41
-8.66565 -13.5393 0.674363 0.34
-8.62692 -13.5795 0.674765 0.29
-8.60735 -13.6437 0.675763 0.41
-8.55755 -13.672 0.675854 0.23
-8.47821 -13.6206 0.673244 0.4
-8.42032 -13.637 0.673049 0.39
-8.37656 -13.6723 0.673317 0.26
-8.27534 -13.637 0.669814 0.25
-8.14285 -13.561 0.665304 0.39
-8.08293 -13.5734 0.665019 0.35
-7.90405 -13.4377 0.65703 0.27
-7.98601 -13.5841 0.663388 0.5
-7.98055 -13.6651 0.665813 0.27
-7.91157 -13.6666 0.664252 0.32
-7.83956 -13.6641 0.662594 0.32
-7.76854 -13.6606 0.661925 0.28
-7.66425 -13.6153 0.658215 0.31
-7.63358 -13.6635 0.658829 0.34
-7.56457 -13.663 0.658232 0.32
-7.5094 -13.6354 0.656261 0.3
-7.44745 -13.6419 0.65485 0.31
-7.37743 -13.6393 0.654208 0.34
-7.30943 -13.6378 0.652601 0.32
-7.24344 -13.6383 0.652047 0.33
-7.17543 -13.6368 0.65044 0.27
-7.11247 -13.6402 0.648967 0.32
-7.0724 -13.6305 0.648449 0.33
-7.01145 -13.6369 0.648046 0.34
-6.94242 -13.6324 0.646376 0.31
-6.88146 -13.6369 0.644938 0.31
-6.81141 -13.6293 0.644205 0.3
-6.7545 -13.6407 0.642927 0.33
-6.68142 -13.6273 0.641059 0.32
-6.55755 -13.4952 0.635604 0.28
-6.50061 -13.5036 0.634272 0.23
-6.44468 -13.514 0.633984 0.33
-6.37765 -13.5074 0.632295 0.27
-6.33383 -13.5347 0.632418 0.26
-6.26577 -13.5252 0.631665 0.25
-6.20075 -13.5207 0.630029 0.23
-6.17783 -13.5328 0.630054 0.38
-6.12189 -13.5412 0.62973 0.32
-6.05484 -13.5327 0.628004 0.28
-6.01405 -13.564 0.628225 0.38
-5.99548 -13.6281 0.630231 0.29
-5.9557 -13.6614 0.630497 0.27
-5.90077 -13.6697 0.629182 0.32
-5.84684 -13.6801 0.628911 0.31
-5.80775 -13.6674 0.628347 0.3
-5.7518 -13.6738 0.626986 0.29
-5.68978 -13.6702 0.626393 0.27
-5.63788 -13.6836 0.625194 0.33
-5.57788 -13.683 0.624672 0.31
-5.52696 -13.6954 0.624463 0.33
-5.47202 -13.7027 0.623129 0.32
-5.43089 -13.684 0.622439 0.3
-5.38504 -13.7063 0.622454 0.36
-5.323 -13.6988 0.620788 0.26
-5.25187 -13.6783 0.61881 0.24
-5.15343 -13.611 0.615749 0.4
-5.11869 -13.6492 0.616147 0.3
-5.07181 -13.6676 0.616081 0.43
-5.03877 -13.6608 0.615677 0.35
-4.99089 -13.6771 0.614566 0.41
-4.96424 -13.7313 0.616323 0.52
-4.84855 -13.6261 0.611427 0.25
-4.76728 -13.5827 0.607946 0.35
-4.76896 -13.6867 0.611849 0.24
-4.64719 -13.5676 0.605648 0.34
-4.65968 -13.6425 0.608115 0.35
-4.65428 -13.7345 0.61174 0.27
-4.61246 -13.7608 0.611862 0.37
-4.56254 -13.7721 0.611642 0.34
-4.50756 -13.7745 0.610218 0.35
-4.46168 -13.7918 0.610141 0.37
-4.38745 -13.7563 0.607865 0.32
-4.36755 -13.7715 0.60797 0.32
-4.32067 -13.7888 0.607886 0.26
-4.24136 -13.7414 0.605348 0.23
-4.12356 -13.6182 0.599108 0.31
-4.08779 -13.6535 0.600443 0.48
-3.99123 -13.5682 0.596071 0.28
-3.95446 -13.6024 0.59638 0.42
-3.95584 -13.6594 0.598427 0.47
-3.96974 -13.7952 0.603014 0.21
-3.87723 -13.7179 0.598821 0.35
-3.8425 -13.7572 0.599238 0.28
-3.77023 -13.7167 0.596887 0.3
-3.70001 -13.6822 0.594662 0.41
-3.72002 -13.836 0.600627 0.31
-3.67616 -13.8563 0.600622 0.31
-3.59844 -13.7469 0.595972 0.28
-3.50589 -13.6626 0.591652 0.32
-3.49549 -13.7526 0.594199 0.37
-3.44654 -13.7599 0.593915 0.25
-3.36512 -13.6955 0.590052 0.35
-3.3253 -13.7228 0.591208 0.33
-3.28447 -13.7491 0.591338 0.41
-3.294 -13.828 0.593852 0.41
-3.19125 -13.7137 0.588902 0.25
-3.12706 -13.6852 0.586836 0.42
-3.14309 -13.84 0.591786 0.28
-3.07179 -13.7945 0.589352 0.36
-3.06245 -13.8936 0.592072 0.34
-2.99014 -13.8461 0.589594 0.29
-2.91029 -13.7167 0.584562 0.31
-2.8481 -13.6882 0.582514 0.39
-2.8032 -13.7025 0.582391 0.33
-2.73492 -13.659 0.580019 0.39
-2.75405 -13.8307 0.586304 0.37
-2.68271 -13.7793 0.583761 0.37
-2.59713 -13.6909 0.579426 0.34
-2.5711 -13.6861 0.579117 0.4
-2.53841 -13.7313 0.57966 0.41
-2.50163 -13.7645 0.579951 0.34
-2.45062 -13.7629 0.579486 0.34
-2.4169 -13.8041 0.579948 0.43
-2.38113 -13.8403 0.581302 0.39
-2.33725 -13.8576 0.581242 0.4
-2.30252 -13.8979 0.581678 0.31
-2.26835 -13.8721 0.580919 0.34
-2.20513 -13.8376 0.578752 0.38
-2.14085 -13.795 0.576432 0.34
-2.07657 -13.7525 0.574112 0.3
-2.03062 -13.7598 0.573853 0.35
-1.97348 -13.7372 0.571956 0.39
-1.95302 -13.8184 0.574256 0.31
-1.91782 -13.7886 0.573415 0.41
-1.82904 -13.6693 0.567491 0.25
-1.81267 -13.7653 0.571097 0.52
-1.78406 -13.8235 0.571911 0.31
-1.70749 -13.7371 0.568688 0.36
-1.6646 -13.7534 0.568619 0.33
-1.61151 -13.7388 0.566901 0.38
-1.5783 -13.708 0.566059 0.36
-1.53439 -13.7213 0.565927 0.4
-1.51499 -13.8114 0.568399 0.33
-1.49354 -13.8935 0.570708 0.41
-1.45373 -13.9228 0.570901 0.38
-1.3812 -13.8423 0.567821 0.29
-1.34137 -13.8666 0.567923 0.36
-1.29487 -13.7909 0.565152 0.35
-1.28879 -13.9309 0.569644 0.34
-1.21625 -13.8475 0.565509 0.38
-1.16209 -13.8239 0.564619 0.3
-1.11101 -13.8112 0.562954 0.3
-1.09882 -13.9333 0.567068 0.39
-1.02213 -13.8288 0.562517 0.44
-0.980263 -13.8481 0.562511 0.32
-0.934729 -13.7675 0.559658 0.31
-0.899 -13.8077 0.560085 0.32
-0.843781 -13.7751 0.559022 0.36
-0.829609 -13.8992 0.562155 0.29
-0.790804 -13.9294 0.563374 0.49
-0.745874 -13.9397 0.563179 0.31
-0.671155 -13.8303 0.558554 0.32
-0.647116 -13.8244 0.558244 0.38
-0.606267 -13.8467 0.5583 0.35
-0.558222 -13.84 0.55777 0.33
-0.51224 -13.8414 0.556402 0.43
-0.491945 -13.9485 0.560175 0.27
-0.422313 -13.852 0.55583 0.41
-0.383515 -13.8832 0.557067 0.3
-0.368772 -13.9213 0.557633 0.51
-0.35984 -14.0823 0.562483 0.34
-0.306668 -14.0567 0.561564 0.29
-0.265825 -14.08 0.561639 0.29
-0.198186 -13.9825 0.557292 0.34
-0.144974 -13.9509 0.556264 0.34
-0.104145 -13.9762 0.556376 0.37
-0.0790988 -13.9693 0.556038 0.34
-0.0382494 -13.9916 0.556095 0.46
-0.000507393 -14.0299 0.556469 0.32
0.0599518 -13.9603 0.55369 0.39
0.0821394 -14.0834 0.557738 0.36
0.121928 -14.1147 0.557967 0.26
0.203137 -13.9313 0.550944 0.43
0.241934 -13.9626 0.552181 0.3
0.260772 -13.9867 0.552459 0.37
0.271497 -14.1797 0.558874 0.32
0.33825 -14.0652 0.554225 0.32
0.396757 -13.9886 0.551336 0.38
0.454189 -13.923 0.548655 0.34
0.492951 -13.9583 0.548966 0.39
0.538969 -13.9556 0.548525 0.36
0.561981 -13.9538 0.548296 0.38
0.60279 -13.9821 0.548462 0.33
0.616488 -14.1791 0.554925 0.35
0.660378 -14.1954 0.554847 0.32
0.700149 -14.2306 0.556149 0.27
0.761835 -14.1261 0.551725 0.39
0.833017 -13.9467 0.544858 0.38
0.851821 -13.9758 0.545227 0.3
0.896818 -13.9761 0.544849 0.33
0.933427 -14.0353 0.546614 0.42
0.978438 -14.0336 0.5462 0.36
1.0371 -13.9321 0.541855 0.34
1.08424 -13.9124 0.541096 0.46
1.09124 -14.2153 0.551541 0.3
1.11424 -14.2155 0.551348 0.43
1.17404 -14.094 0.54663 0.31
1.20734 -14.1982 0.549239 0.32
1.25659 -14.1615 0.548154 0.28
1.31858 -14.01 0.541873 0.43
1.36146 -14.0283 0.54184 0.34
1.40326 -14.0586 0.543034 0.36
1.42312 -14.0807 0.543268 0.39
1.46705 -14.091 0.543081 0.37
1.50665 -14.1512 0.544838 0.36
1.54955 -14.1655 0.544732 0.44
1.60319 -14.0699 0.541539 0.3
1.64707 -14.0872 0.541479 0.39
1.68882 -14.1235 0.541783 0.26
1.72167 -13.9958 0.537182 0.45
1.75906 -14.089 0.540557 0.32
1.81066 -13.9964 0.536435 0.37
1.85135 -14.0437 0.537948 0.38
1.8876 -14.1579 0.541714 0.26
1.93255 -14.1652 0.541464 0.43
1.97203 -14.2434 0.543549 0.33
2.02039 -14.1888 0.541145 0.4
2.03781 -14.2759 0.543579 0.27
2.08958 -14.1583 0.539001 0.38
2.13695 -14.1046 0.537623 0.32
2.18194 -14.1049 0.537245 0.34
2.22574 -14.1352 0.537422 0.31
2.26724 -14.2105 0.539436 0.41
2.31107 -14.2358 0.539523 0.35
2.33548 -14.1749 0.53821 0.36
2.38051 -14.1683 0.536705 0.42
2.42182 -14.2735 0.540265 0.29
2.47068 -14.1429 0.535476 0.32
2.51321 -14.2142 0.537409 0.35
2.55513 -14.3774 0.542018 0.42
2.59996 -14.4037 0.543113 0.3
2.62454 -14.3169 0.540327 0.31
2.67119 -14.2173 0.536119 0.42
2.71482 -14.2735 0.53777 0.3
2.76014 -14.2239 0.535482 0.39
2.80456 -14.3121 0.537708 0.41
2.85044 -14.3304 0.538649 0.35
2.89568 -14.2938 0.536598 0.28
2.91768 -14.2939 0.536413 0.36
2.96272 -14.2872 0.535908 0.38
3.00787 -14.2655 0.53513 0.41
3.05283 -14.2709 0.534843 0.35
3.09794 -14.2542 0.534156 0.33
3.14368 -14.2935 0.53448 0.33
3.18794 -14.2538 0.533382 0.3
3.2101 -14.23 0.531761 0.38
3.25423 -14.2103 0.531027 0.44
3.30004 -14.2386 0.531151 0.4
3.34505 -14.2359 0.530719 0.28
3.38744 -14.1782 0.52931 0.38
3.43248 -14.1725 0.528823 0.32
3.47648 -14.1718 0.528435 0.45
3.50296 -14.251 0.530648 0.4
3.54794 -14.2533 0.530307 0.36
3.59655 -14.3126 0.531971 0.25
3.6362 -14.2139 0.52784 0.35
3.67766 -14.1442 0.525221 0.32
3.72348 -14.1715 0.526327 0.4
3.76845 -14.1758 0.526022 0.37
3.8135 -14.1691 0.525517 0.4
3.83827 -14.2033 0.525926 0.38
3.88597 -14.2486 0.527343 0.36
3.93101 -14.2429 0.526856 0.32
3.97787 -14.2632 0.526827 0.45
4.02936 -14.3415 0.529811 0.34
4.07255 -14.3119 0.527904 0.32
4.12317 -14.3692 0.529514 0.47
4.15823 -14.5114 0.533799 0.27
4.20988 -14.5647 0.535328 0.39
4.24935 -14.494 0.532708 0.23
4.27665 -14.2973 0.5259 0.31
4.32355 -14.3126 0.526779 0.38
4.36103 -14.2399 0.524139 0.4
4.40609 -14.2312 0.523597 0.39
4.4347 -14.2884 0.524393 0.35
4.47599 -14.2456 0.523265 0.39
4.51915 -14.2219 0.522467 0.38
4.56791 -14.2573 0.522693 0.34
4.61959 -14.3066 0.52415 0.35
4.66181 -14.2739 0.523196 0.38
4.7078 -14.2752 0.522828 0.36
4.74033 -14.3464 0.524845 0.42
4.78154 -14.3127 0.522882 0.29
4.82753 -14.316 0.52355 0.35
4.87833 -14.3454 0.523651 0.39
4.93101 -14.3947 0.525098 0.37
4.96556 -14.311 0.522283 0.41
5.01157 -14.3093 0.52186 0.34
5.03743 -14.3305 0.522025 0.43
5.08345 -14.3268 0.521566 0.32
5.13812 -14.3771 0.523015 0.33
5.17355 -14.3124 0.520537 0.35
5.21574 -14.2837 0.519657 0.4
5.25405 -14.237 0.517482 0.31
