ply
format ascii 1.0
element vertex 1576
property double x
property double y
property double z
property float intensity
end_header
7.46656 -1.17178 -1.64461 0.16
7.46963 -1.15679 -1.64461 0.11
7.50268 -1.14894 -1.65557 0.18
7.46573 -1.13178 -1.64061 0.05
7.4738 -1.11781 -1.6426 0.15
7.48086 -1.10384 -1.64359 0.2
7.47293 -1.08681 -1.6396 0.1
7.475 -1.07082 -1.63859 0.09
7.51605 -1.064 -1.65354 0.15
7.47913 -1.04084 -1.63858 0.05
7.51018 -1.03197 -1.64855 0.15
7.49722 -1.02091 -1.64256 0.05
7.50428 -1.00694 -1.64455 0.15
7.51835 -0.994006 -1.64853 0.19
7.51541 -0.977993 -1.64654 0.17
7.50249 -0.958937 -1.64055 0.18
7.51055 -0.944972 -1.64254 0.16
7.50262 -0.927937 -1.63855 0.04
7.52765 -0.925046 -1.64752 0.14
7.53071 -0.910059 -1.64751 0.2
7.53178 -0.894064 -1.64651 0.1
7.51985 -0.877012 -1.64052 0.14
7.53392 -0.863073 -1.6455 0.04
7.52398 -0.84603 -1.64051 0.07
7.53005 -0.832056 -1.6415 0.09
7.53908 -0.825095 -1.64449 0.09
7.53415 -0.809074 -1.6415 0
7.54921 -0.796139 -1.64648 0.13
7.54428 -0.779118 -1.64348 0.18
7.52835 -0.761048 -1.6365 0.16
7.52842 -0.746048 -1.6365 0.04
7.54748 -0.733131 -1.64248 0.14
7.54055 -0.717101 -1.63848 0.05
7.55858 -0.711179 -1.64546 0.15
7.55365 -0.695158 -1.64246 0.05
7.58571 -0.684297 -1.65343 0.14
7.54278 -0.663111 -1.63647 0.05
7.56884 -0.651224 -1.64544 0.15
7.55091 -0.633146 -1.63846 0.05
7.57898 -0.621267 -1.64743 0.14
7.54001 -0.609098 -1.63347 0.05
7.55208 -0.594151 -1.63646 0.16
7.56315 -0.580198 -1.64044 0.11
7.57921 -0.567268 -1.64542 0.15
7.57428 -0.550247 -1.64243 0.06
7.56635 -0.534212 -1.63943 0.15
7.56941 -0.519225 -1.64043 0.19
7.58545 -0.513295 -1.64541 0.16
7.54951 -0.494139 -1.63145 0.05
7.56858 -0.480222 -1.63843 0.17
7.57165 -0.465235 -1.63842 0.2
7.57071 -0.450231 -1.63842 0.17
7.57078 -0.434231 -1.63742 0.1
7.59785 -0.421348 -1.64739 0.17
7.56188 -0.411192 -1.63343 0.05
7.58295 -0.397283 -1.6404 0.17
7.57902 -0.381266 -1.63841 0.2
7.59108 -0.367319 -1.64239 0.16
7.56815 -0.350219 -1.63342 0.06
7.57321 -0.335241 -1.63541 0.17
7.57428 -0.320245 -1.63541 0.19
7.58232 -0.31228 -1.6384 0.1
7.61839 -0.299436 -1.65135 0.18
7.55945 -0.280181 -1.62942 0.05
7.56751 -0.266215 -1.63141 0.16
7.57958 -0.251268 -1.63639 0.11
7.58065 -0.235272 -1.63639 0.18
7.58372 -0.220285 -1.63639 0.11
7.61379 -0.206416 -1.64735 0.17
7.57882 -0.197264 -1.63439 0.22
7.59789 -0.182347 -1.64137 0.18
7.57595 -0.166251 -1.63339 0.06
7.58602 -0.151295 -1.63638 0.16
7.57508 -0.136247 -1.63239 0.11
7.60516 -0.121378 -1.64335 0.2
7.59122 -0.105317 -1.63837 0.11
7.61126 -0.098404 -1.64534 0.18
7.57632 -0.0822521 -1.63238 0.05
7.59739 -0.0673435 -1.64036 0.17
7.57845 -0.0522611 -1.63338 0.11
7.60153 -0.0363612 -1.64135 0.18
7.59559 -0.0213352 -1.63935 0.23
7.45166 -0.00670521 -1.63952 0.29
7.46273 0.00824697 -1.64451 0.25
7.46479 0.0232381 -1.6445 0.19
7.45485 0.0382814 -1.64151 0.26
7.46092 0.0532552 -1.6435 0.24
7.46396 0.0612421 -1.6445 0.2
7.45502 0.0752811 -1.64151 0.27
7.45108 0.0902982 -1.63951 0.23
7.46015 0.105259 -1.6435 0.19
7.44621 0.12032 -1.63852 0.27
7.45928 0.135263 -1.6435 0.23
7.44734 0.150315 -1.63951 0.19
7.45238 0.157293 -1.6415 0.26
7.44244 0.172337 -1.63752 0.23
7.45151 0.187297 -1.6415 0.26
7.45858 0.202267 -1.64449 0.25
7.45264 0.217293 -1.6425 0.21
7.4427 0.232336 -1.63851 0.27
7.44677 0.247319 -1.6405 0.23
7.4468 0.254319 -1.6405 0.21
7.44386 0.269332 -1.6395 0.25
7.44293 0.284336 -1.6395 0.25
7.444 0.299331 -1.6405 0.2
7.44706 0.314318 -1.6425 0.25
7.44813 0.329314 -1.64249 0.25
7.44519 0.344327 -1.6425 0.2
7.44526 0.359327 -1.64249 0.25
7.44829 0.366314 -1.64449 0.2
7.44536 0.381326 -1.64349 0.23
7.45543 0.397283 -1.64748 0.21
7.44549 0.411326 -1.64449 0.12
7.44055 0.425348 -1.64249 0.2
7.44262 0.441339 -1.64449 0.11
7.44469 0.45633 -1.64549 0.18
7.44072 0.463348 -1.64449 0.12
7.44278 0.478339 -1.64549 0.21
7.43384 0.492378 -1.6425 0.11
7.43591 0.507369 -1.64449 0.2
7.42897 0.522399 -1.6425 0.11
7.42303 0.536425 -1.6405 0.2
7.43411 0.552377 -1.64549 0.11
7.43214 0.560386 -1.64449 0.18
7.4242 0.574421 -1.6425 0.2
7.42627 0.589412 -1.6445 0.1
7.42633 0.604412 -1.64449 0.2
7.42039 0.618438 -1.6435 0.2
7.42046 0.633438 -1.6445 0.1
7.43755 0.651364 -1.65148 0.18
7.41156 0.655477 -1.64251 0.21
7.41963 0.671442 -1.6455 0.09
7.4167 0.686455 -1.6455 0.18
7.41676 0.701455 -1.6465 0.11
7.42184 0.717433 -1.64949 0.18
7.41389 0.730468 -1.6475 0.21
7.40595 0.744502 -1.64451 0.1
7.41703 0.761455 -1.64949 0.18
7.39904 0.766533 -1.64351 0.21
7.39811 0.781537 -1.64451 0.1
7.39818 0.796537 -1.64451 0.21
7.39324 0.810559 -1.64451 0.1
7.3923 0.825563 -1.64451 0.2
7.38436 0.839598 -1.64252 0.11
7.37842 0.853624 -1.64153 0.21
7.38446 0.862598 -1.64452 0.11
7.38854 0.87858 -1.64751 0.18
7.37458 0.890641 -1.64253 0.22
7.38466 0.907597 -1.64752 0.18
7.37472 0.921641 -1.64453 0.23
7.37579 0.936636 -1.64652 0.19
7.36184 0.948697 -1.64254 0.23
7.36788 0.957671 -1.64453 0.22
7.35493 0.970728 -1.64154 0.2
7.352 0.985741 -1.64155 0.25
7.36609 1.00368 -1.64753 0.2
7.34613 1.01477 -1.64155 0.12
7.3502 1.03075 -1.64454 0.21
7.35027 1.04575 -1.64554 0.21
7.3453 1.05277 -1.64455 0.24
7.33435 1.06482 -1.64156 0.24
7.32039 1.07688 -1.63758 0.19
7.32647 1.09385 -1.64057 0.26
7.31853 1.10789 -1.63957 0.23
7.3206 1.12288 -1.64157 0.21
7.32468 1.13986 -1.64456 0.19
7.31373 1.15191 -1.64158 0.34
7.30475 1.15795 -1.63859 0.36
7.29881 1.17197 -1.63759 0.36
7.30288 1.18796 -1.64059 0.36
7.30095 1.20297 -1.64159 0.36
7.293 1.216 -1.63959 0.36
7.29107 1.23101 -1.6406 0.31
7.28213 1.24405 -1.6386 0.52
7.27314 1.24909 -1.63562 0.21
7.27822 1.26607 -1.63961 0.28
7.26627 1.27812 -1.63662 0.24
7.27736 1.29707 -1.64261 0.21
7.2604 1.30714 -1.63762 0.27
7.26348 1.32413 -1.63962 0.25
7.26655 1.34012 -1.64261 0.24
7.26759 1.34811 -1.64461 0.18
7.24562 1.35721 -1.63764 0.28
7.2487 1.3742 -1.63963 0.22
7.24075 1.38723 -1.63864 0.27
7.25084 1.40519 -1.64463 0.26
7.23588 1.41625 -1.63964 0.21
7.23295 1.43127 -1.64065 0.26
7.22397 1.4363 -1.63766 0.25
7.21903 1.45033 -1.63766 0.17
7.2201 1.46632 -1.63966 0.28
7.21917 1.48133 -1.64166 0.25
7.20822 1.49437 -1.63967 0.26
7.20729 1.50938 -1.64067 0.27
7.21337 1.52735 -1.64466 0.28
7.20643 1.54038 -1.64467 0.24
7.19745 1.54542 -1.64168 0.19
7.18549 1.55647 -1.63869 0.3
7.19058 1.57445 -1.64268 0.25
7.19165 1.59045 -1.64468 0.21
7.17268 1.59953 -1.6397 0.28
7.17275 1.61553 -1.6417 0.24
7.17283 1.63153 -1.6437 0.26
7.16184 1.63558 -1.63971 0.19
7.1579 1.6496 -1.64071 0.26
7.15998 1.66659 -1.64371 0.25
7.15805 1.6816 -1.64471 0.27
7.1491 1.69464 -1.64372 0.28
7.14917 1.71064 -1.64572 0.25
7.1302 1.71872 -1.63974 0.29
7.14327 1.73166 -1.64672 0.27
7.1233 1.74075 -1.64075 0.29
7.12137 1.75576 -1.64275 0.25
7.12645 1.77374 -1.64674 0.27
7.10547 1.78083 -1.63976 0.18
7.10154 1.79584 -1.64077 0.28
7.10061 1.81185 -1.64277 0.25
7.09664 1.81787 -1.64277 0.26
7.10573 1.83783 -1.64876 0.25
7.08276 1.84493 -1.64178 0.19
7.0688 1.85499 -1.6378 0.29
7.07488 1.87296 -1.64279 0.25
7.07095 1.88798 -1.64379 0.25
7.063 1.90101 -1.6428 0.28
7.05803 1.90704 -1.64281 0.27
7.05009 1.92007 -1.64182 0.26
7.04615 1.93409 -1.64282 0.27
7.04722 1.95108 -1.64482 0.25
7.03226 1.96015 -1.64183 0.2
7.01931 1.97121 -1.63885 0.29
7.0264 1.99118 -1.64484 0.25
7.02042 1.9962 -1.64284 0.28
7.01248 2.00924 -1.64285 0.29
7.00954 2.02425 -1.64385 0.27
6.99759 2.0353 -1.64187 0.29
6.99967 2.05229 -1.64486 0.28
6.98871 2.06334 -1.64287 0.27
6.98478 2.07836 -1.64488 0.29
6.97684 2.09139 -1.64389 0.29
6.97888 2.10038 -1.64588 0.27
6.96391 2.10945 -1.6429 0.27
6.94895 2.11851 -1.63892 0.26
6.95003 2.13651 -1.64291 0.27
6.95713 2.15648 -1.6479 0.27
6.94317 2.16654 -1.64492 0.29
6.92519 2.17362 -1.63994 0.27
6.93827 2.18856 -1.64792 0.25
6.92631 2.19962 -1.64493 0.31
6.91135 2.20868 -1.64195 0.25
6.90541 2.22271 -1.64296 0.3
6.90348 2.23772 -1.64496 0.26
6.90356 2.25472 -1.64796 0.28
6.88258 2.26081 -1.64198 0.32
6.89064 2.27377 -1.64697 0.27
6.8867 2.28879 -1.64797 0.26
6.87374 2.29785 -1.64499 0.31
6.8678 2.31187 -1.64599 0.3
6.85685 2.32292 -1.645 0.27
6.83888 2.33 -1.64003 0.3
6.84296 2.34898 -1.64502 0.25
6.841 2.35699 -1.64502 0.28
6.83506 2.37102 -1.64603 0.3
6.82611 2.38306 -1.64504 0.27
6.82017 2.39608 -1.64604 0.27
6.81724 2.41209 -1.64804 0.28
6.80128 2.42016 -1.64506 0.27
6.79333 2.4332 -1.64507 0.29
6.79939 2.44517 -1.64906 0.29
6.78844 2.45622 -1.64807 0.28
6.77949 2.46826 -1.64708 0.29
6.76653 2.47832 -1.6451 0.29
6.7656 2.49432 -1.6481 0.31
6.75565 2.50637 -1.64711 0.29
6.74671 2.5184 -1.64612 0.3
6.74377 2.53342 -1.64812 0.3
6.73579 2.53845 -1.64713 0.28
6.72684 2.54949 -1.64614 0.29
6.71689 2.56154 -1.64515 0.3
6.69791 2.56662 -1.64017 0.33
6.69799 2.58462 -1.64417 0.28
6.69105 2.59765 -1.64517 0.28
6.6811 2.60969 -1.64418 0.29
6.68315 2.61968 -1.64718 0.27
6.66617 2.62576 -1.6432 0.26
6.66726 2.64475 -1.6472 0.34
6.66032 2.65778 -1.6482 0.28
6.65338 2.67181 -1.64821 0.27
6.64543 2.68385 -1.64822 0.28
6.63648 2.69589 -1.64823 0.29
6.63051 2.70091 -1.64824 0.27
6.62256 2.71395 -1.64824 0.28
6.61562 2.72698 -1.64825 0.3
6.59764 2.73306 -1.64427 0.3
6.59672 2.75006 -1.64827 0.25
6.58476 2.76012 -1.64628 0.33
6.56979 2.76818 -1.6433 0.27
6.57787 2.78315 -1.64929 0.26
6.57393 2.79816 -1.65129 0.29
6.55094 2.80026 -1.64532 0.31
6.55002 2.81827 -1.64832 0.27
6.54609 2.83329 -1.65032 0.28
6.51606 2.83042 -1.64036 0.3
6.51314 2.84643 -1.64336 0.29
6.5172 2.85941 -1.64835 0.27
6.50524 2.86846 -1.64637 0.27
6.49829 2.8815 -1.64737 0.28
6.48835 2.89354 -1.64738 0.27
6.4814 2.90657 -1.64839 0.28
6.47246 2.91861 -1.6484 0.29
6.47154 2.93761 -1.6524 0.27
6.45758 2.94567 -1.65042 0.29
6.44758 2.94672 -1.64743 0.3
6.44566 2.96473 -1.65043 0.25
6.44475 2.98273 -1.65543 0.3
6.41773 2.98085 -1.64646 0.3
6.41781 2.99985 -1.65046 0.25
6.41087 3.01288 -1.65246 0.28
6.3939 3.01895 -1.64848 0.31
6.38691 3.02298 -1.64749 0.29
6.37696 3.03403 -1.6475 0.25
6.37504 3.05104 -1.6505 0.24
6.36107 3.0591 -1.64852 0.23
6.35313 3.07213 -1.64953 0.27
6.3492 3.08815 -1.65253 0.21
6.3272 3.09025 -1.64656 0.21
6.32825 3.10024 -1.64955 0.23
6.30725 3.10233 -1.64358 0.27
6.31438 3.1283 -1.65257 0.28
6.2994 3.13437 -1.64958 0.28
6.29046 3.14741 -1.65059 0.28
6.2795 3.15746 -1.64961 0.27
6.26955 3.1685 -1.64962 0.27
6.26156 3.17153 -1.64863 0.27
6.25563 3.18656 -1.65063 0.26
6.25271 3.20357 -1.65363 0.25
6.23573 3.20865 -1.65065 0.2
6.22276 3.2167 -1.64867 0.29
6.20678 3.22277 -1.64568 0.25
6.20788 3.24377 -1.65168 0.28
6.20893 3.25477 -1.65468 0.23
6.18693 3.25486 -1.64871 0.21
6.17296 3.26292 -1.64672 0.3
6.17506 3.28491 -1.65372 0.25
6.15406 3.28501 -1.64774 0.27
6.15014 3.30302 -1.65074 0.27
6.15325 3.32601 -1.65874 0.29
6.14325 3.32705 -1.65575 0.28
6.12124 3.32715 -1.64978 0.2
6.10727 3.33421 -1.64779 0.3
6.10737 3.35521 -1.65379 0.25
6.09641 3.36526 -1.6538 0.24
6.08847 3.37829 -1.65481 0.18
6.06646 3.37739 -1.64884 0.29
6.07058 3.40237 -1.65583 0.25
6.05455 3.39744 -1.65085 0.25
6.04359 3.40749 -1.65086 0.28
6.0447 3.43049 -1.65686 0.27
6.02169 3.42859 -1.65088 0.29
6.01776 3.4456 -1.65389 0.25
6.00782 3.45765 -1.6549 0.29
5.98882 3.45873 -1.64992 0.27
5.98284 3.46376 -1.64993 0.27
5.98093 3.48277 -1.65493 0.29
5.96093 3.48385 -1.64995 0.27
5.95399 3.49788 -1.65196 0.28
5.94907 3.51491 -1.65596 0.28
5.93107 3.51698 -1.65098 0.27
5.92817 3.537 -1.65598 0.24
5.92721 3.546 -1.65898 0.29
5.90218 3.54111 -1.65101 0.28
5.89826 3.55913 -1.65502 0.31
5.88329 3.56519 -1.65303 0.28
5.86429 3.56628 -1.64906 0.26
5.86439 3.58928 -1.65505 0.28
5.86149 3.60929 -1.66005 0.25
5.84544 3.60136 -1.65407 0.28
5.8365 3.6134 -1.65508 0.3
5.82756 3.62644 -1.65609 0.25
5.80957 3.62952 -1.65311 0.29
5.80364 3.64454 -1.65612 0.27
5.79671 3.65957 -1.65913 0.28
5.7777 3.66066 -1.65415 0.3
5.77776 3.67266 -1.65815 0.27
5.7668 3.6827 -1.65816 0.27
5.74982 3.68678 -1.65518 0.27
5.7459 3.7048 -1.65918 0.27
5.72489 3.70289 -1.65421 0.27
5.71796 3.71792 -1.65621 0.28
5.70499 3.72598 -1.65623 0.3
5.69001 3.73104 -1.65424 0.3
5.68102 3.73308 -1.65225 0.27
5.68214 3.75808 -1.66025 0.27
5.66615 3.76115 -1.65727 0.29
5.65821 3.77518 -1.65928 0.28
5.64424 3.78324 -1.65929 0.29
5.63127 3.7903 -1.65831 0.29
5.6173 3.79636 -1.65632 0.28
5.6083 3.7974 -1.65433 0.2
5.5903 3.79848 -1.65136 0.29
5.58237 3.81251 -1.65336 0.25
5.57141 3.82256 -1.65438 0.25
5.56247 3.8356 -1.65638 0.28
5.55353 3.84964 -1.65839 0.28
5.53352 3.84773 -1.65342 0.26
5.52855 3.85375 -1.65442 0.31
5.51558 3.86081 -1.65344 0.3
5.50664 3.87484 -1.65545 0.29
5.49467 3.8829 -1.65546 0.25
5.48674 3.89793 -1.65847 0.3
5.47478 3.90698 -1.65848 0.29
5.45477 3.90507 -1.6535 0.3
5.44885 3.9221 -1.65751 0.25
5.44388 3.92812 -1.65852 0.28
5.42689 3.93119 -1.65553 0.3
5.41996 3.94723 -1.65954 0.29
5.40497 3.95129 -1.65656 0.28
5.39302 3.96034 -1.65757 0.29
5.37401 3.95943 -1.65359 0.3
5.36003 3.96549 -1.65161 0.29
5.36312 3.98347 -1.6586 0.27
5.34713 3.98654 -1.65662 0.31
5.33416 3.9936 -1.65564 0.3
5.32422 4.00664 -1.65765 0.26
5.31628 4.02068 -1.66066 0.27
5.29324 4.01378 -1.65368 0.32
5.28834 4.0338 -1.65969 0.27
5.26429 4.02491 -1.65172 0.3
5.26939 4.04588 -1.65971 0.27
5.25542 4.05295 -1.65872 0.28
5.24144 4.05701 -1.65674 0.28
5.23452 4.07504 -1.66175 0.28
5.21853 4.07811 -1.65977 0.25
5.20557 4.08616 -1.65978 0.31
5.19361 4.09522 -1.65979 0.28
5.17956 4.08628 -1.65481 0.3
5.17667 4.11029 -1.66181 0.25
5.16069 4.11336 -1.65983 0.27
5.1457 4.11743 -1.65785 0.3
5.13778 4.13346 -1.66186 0.27
5.1238 4.13952 -1.66087 0.3
5.11588 4.15656 -1.66488 0.26
5.10385 4.15061 -1.66089 0.3
5.08887 4.15468 -1.65991 0.28
5.0769 4.16373 -1.65992 0.26
5.06998 4.18076 -1.66393 0.29
5.05602 4.18882 -1.66395 0.29
5.03599 4.18291 -1.65897 0.32
5.03109 4.20493 -1.66497 0.27
5.02511 4.20996 -1.66598 0.29
5.01114 4.21602 -1.665 0.25
4.99515 4.21809 -1.66301 0.2
4.98419 4.22814 -1.66403 0.34
4.97224 4.23919 -1.66604 0.31
4.95524 4.23926 -1.66306 0.38
4.94126 4.24432 -1.66208 0.39
4.93831 4.25434 -1.66508 0.42
4.92736 4.26638 -1.66709 0.35
4.91036 4.26746 -1.66411 0.36
4.89436 4.26853 -1.66213 0.39
4.88443 4.28257 -1.66514 0.36
4.87248 4.29263 -1.66715 0.34
4.85749 4.29569 -1.66517 0.39
4.84351 4.30075 -1.66419 0.38
4.83753 4.30578 -1.66519 0.41
4.82255 4.31084 -1.66421 0.41
4.81362 4.32588 -1.66822 0.27
4.80369 4.34093 -1.67223 0.28
4.7877 4.343 -1.66925 0.27
4.7717 4.34407 -1.66727 0.27
4.75773 4.35013 -1.66728 0.27
4.75073 4.35216 -1.66729 0.27
4.73878 4.36221 -1.6683 0.28
4.73087 4.38125 -1.67431 0.25
4.70982 4.37234 -1.66734 0.2
4.7009 4.38938 -1.67234 0.31
4.68794 4.39743 -1.67236 0.37
4.67396 4.4035 -1.67237 0.33
4.66697 4.40453 -1.67238 0.37
4.64996 4.4036 -1.6694 0.36
4.63902 4.41665 -1.67241 0.36
4.62505 4.42271 -1.67243 0.39
4.61107 4.42877 -1.67245 0.36
4.5971 4.43483 -1.67246 0.37
4.58414 4.44289 -1.67248 0.38
4.56914 4.44495 -1.67149 0.35
4.56216 4.44798 -1.6715 0.32
4.55325 4.46702 -1.67751 0.4
4.53624 4.4661 -1.67453 0.29
4.52935 4.48913 -1.68154 0.27
4.51032 4.48321 -1.67656 0.3
4.49735 4.49027 -1.67757 0.27
4.48439 4.49933 -1.67859 0.26
4.4774 4.50236 -1.6786 0.25
4.46646 4.51441 -1.68161 0.2
4.4535 4.52346 -1.68262 0.28
4.43952 4.52852 -1.68264 0.25
4.42455 4.53459 -1.68266 0.24
4.40753 4.53066 -1.67968 0.25
4.39559 4.54372 -1.68269 0.23
4.38566 4.55876 -1.6867 0.19
4.37361 4.54981 -1.68171 0.26
4.36471 4.57085 -1.68772 0.23
4.3477 4.56893 -1.68474 0.25
4.33676 4.58097 -1.68775 0.2
4.31773 4.57506 -1.68378 0.27
4.30781 4.5921 -1.68879 0.25
4.29484 4.59916 -1.6898 0.21
4.28381 4.59321 -1.68581 0.25
4.27185 4.60326 -1.68783 0.22
4.26195 4.6243 -1.69484 0.19
4.24391 4.61638 -1.68986 0.27
4.23298 4.63143 -1.69387 0.25
4.22003 4.64249 -1.69589 0.19
4.19996 4.62857 -1.68891 0.27
4.194 4.6366 -1.69092 0.23
4.18206 4.64865 -1.69393 0.19
4.16403 4.64373 -1.68995 0.26
4.15514 4.66677 -1.69696 0.2
4.1371 4.65885 -1.69198 0.12
4.1272 4.67889 -1.69899 0.21
4.11221 4.68196 -1.69801 0.2
4.0952 4.68103 -1.69603 0.13
4.08922 4.68506 -1.69703 0.21
4.07526 4.69412 -1.69905 0.21
4.05924 4.69119 -1.69607 0.24
4.0463 4.70325 -1.69908 0.19
4.03131 4.70531 -1.6981 0.24
4.02039 4.72336 -1.70411 0.19
4.00237 4.71844 -1.70013 0.23
3.99742 4.72846 -1.70314 0.24
3.98344 4.73352 -1.70415 0.21
3.96744 4.73459 -1.70217 0.24
3.95348 4.74365 -1.70519 0.22
3.93747 4.74172 -1.70221 0.11
3.92452 4.75278 -1.70522 0.2
3.90852 4.75285 -1.70424 0.11
3.90153 4.75488 -1.70425 0.21
3.88655 4.75895 -1.70427 0.11
3.8726 4.77001 -1.70728 0.19
3.8576 4.77107 -1.7063 0.11
3.84772 4.79512 -1.71431 0.18
3.82865 4.7822 -1.70733 0.21
3.81367 4.78527 -1.70735 0.19
3.80465 4.78231 -1.70536 0.21
3.79376 4.80536 -1.71337 0.19
3.77672 4.79743 -1.70939 0.21
3.76482 4.81748 -1.7154 0.19
3.74472 4.79757 -1.70643 0.21
3.72974 4.80263 -1.70745 0.22
3.71474 4.8017 -1.70546 0.11
3.70283 4.82175 -1.71248 0.19
3.69483 4.82079 -1.71149 0.11
3.68086 4.82785 -1.7125 0.09
3.66588 4.83291 -1.71352 0.18
3.64887 4.82999 -1.71154 0.2
3.63696 4.85004 -1.71755 0.19
3.61888 4.83412 -1.71057 0.21
3.60596 4.85018 -1.71559 0.2
3.59591 4.84022 -1.7116 0.23
3.58194 4.84628 -1.71262 0.1
3.56902 4.86434 -1.71863 0.21
3.55096 4.85242 -1.71265 0.2
3.53804 4.86747 -1.71766 0.2
3.52203 4.86654 -1.71668 0.22
3.50909 4.8796 -1.7207 0.17
3.49001 4.86268 -1.71272 0.23
3.4851 4.88171 -1.71973 0.19
3.46806 4.87278 -1.71575 0.23
3.45511 4.88484 -1.71976 0.21
3.43912 4.88691 -1.71978 0.22
3.42619 4.90197 -1.72479 0.19
3.40815 4.89204 -1.71981 0.21
3.39522 4.9081 -1.72483 0.2
3.38513 4.88914 -1.71784 0.11
3.37119 4.90221 -1.72186 0.2
3.35416 4.89528 -1.71788 0.11
3.33919 4.90135 -1.71989 0.2
3.32523 4.91041 -1.72291 0.11
3.30924 4.91248 -1.72293 0.2
3.29323 4.91055 -1.72095 0.11
3.27721 4.90662 -1.71897 0.18
3.27023 4.91165 -1.71997 0.11
3.2563 4.92571 -1.72499 0.2
3.24027 4.91978 -1.72301 0.11
3.22529 4.92384 -1.72303 0.2
3.20929 4.92491 -1.72305 0.11
3.19432 4.93198 -1.72506 0.2
3.17829 4.92505 -1.72208 0.11
3.17238 4.94408 -1.72909 0.18
3.15531 4.93015 -1.72311 0.22
3.14138 4.94521 -1.72812 0.19
3.12435 4.93729 -1.72514 0.12
3.10938 4.94335 -1.72716 0.18
3.09438 4.94542 -1.72718 0.11
3.07841 4.95149 -1.7292 0.2
3.07037 4.94252 -1.72521 0.11
3.05542 4.95359 -1.72922 0.19
3.03938 4.94566 -1.72524 0.11
3.02442 4.95372 -1.72826 0.18
3.0084 4.94879 -1.72628 0.11
2.99341 4.95186 -1.7273 0.2
2.97742 4.95293 -1.72731 0.11
2.96243 4.955 -1.72833 0.2
2.95444 4.95903 -1.72934 0.11
2.93948 4.9661 -1.73136 0.19
2.92346 4.96317 -1.73038 0.2
2.90743 4.95624 -1.7274 0.1
2.89245 4.9603 -1.72841 0.2
2.87651 4.97237 -1.73243 0.1
2.86149 4.96844 -1.73145 0.19
2.85352 4.97447 -1.73346 0.11
2.83749 4.96954 -1.73148 0.2
2.82251 4.97361 -1.73249 0.11
2.80647 4.96468 -1.72951 0.19
2.7905 4.97075 -1.73153 0.11
2.77554 4.97981 -1.73555 0.18
2.75952 4.97488 -1.73257 0.22
2.75155 4.98192 -1.73558 0.21
2.73654 4.97999 -1.73559 0.1
2.72053 4.97705 -1.73361 0.2
2.70552 4.97512 -1.73263 0.11
2.68954 4.98019 -1.73565 0.2
2.67351 4.97326 -1.73267 0.11
2.65761 4.99533 -1.74069 0.18
2.64248 4.9664 -1.73071 0.22
2.6346 4.99143 -1.73971 0.19
2.61856 4.9835 -1.73673 0.22
2.60361 4.99457 -1.74075 0.2
2.58751 4.97464 -1.73377 0.23
2.57255 4.9817 -1.73679 0.1
2.55649 4.96877 -1.73181 0.18
2.54051 4.97384 -1.73383 0.11
2.53352 4.97487 -1.73483 0.2
2.51755 4.98194 -1.73785 0.11
2.50155 4.98201 -1.73787 0.2
2.48651 4.97308 -1.73489 0.11
2.46959 4.98915 -1.74091 0.18
2.45453 4.97722 -1.73693 0.22
2.43854 4.98029 -1.73794 0.16
2.42353 4.97736 -1.73796 0.24
2.41554 4.97939 -1.73797 0.1
2.4005 4.97046 -1.73599 0.2
2.38452 4.97553 -1.73801 0.1
2.36758 4.9876 -1.74303 0.18
2.35349 4.96966 -1.73604 0.23
2.33656 4.98274 -1.74206 0.2
2.32249 4.9688 -1.73708 0.23
2.31351 4.97384 -1.73909 0.18
2.2985 4.9709 -1.73811 0.23
2.28157 4.98598 -1.74513 0.2
2.26749 4.96804 -1.73815 0.11
2.25149 4.96811 -1.73916 0.21
2.23549 4.96918 -1.74018 0.11
2.2195 4.96925 -1.7412 0.2
2.21248 4.96628 -1.74021 0.11
2.19552 4.97435 -1.74323 0.18
2.18048 4.96542 -1.74125 0.11
2.16451 4.97149 -1.74327 0.2
2.15045 4.95855 -1.73928 0.11
2.13347 4.96362 -1.7423 0.18
2.11845 4.95969 -1.74132 0.23
2.10149 4.96776 -1.74534 0.2
2.09444 4.9568 -1.74135 0.22
2.07557 4.98288 -1.75237 0.19
2.06344 4.95693 -1.74339 0.21
2.04648 4.96401 -1.74641 0.19
2.03243 4.95307 -1.74342 0.23
2.01642 4.95114 -1.74344 0.1
2.0014 4.9482 -1.74346 0.2
1.99437 4.94023 -1.74047 0.11
1.97739 4.94531 -1.74349 0.19
1.96334 4.93537 -1.74051 0.11
1.94734 4.93444 -1.74152 0.21
1.93135 4.93651 -1.74254 0.11
1.91438 4.94258 -1.74656 0.18
1.90034 4.93264 -1.74358 0.11
1.89137 4.93868 -1.74659 0.17
1.87731 4.92675 -1.74261 0.21
1.86035 4.93582 -1.74663 0.19
1.84824 4.91287 -1.73864 0.21
1.83029 4.92295 -1.74366 0.18
1.81526 4.91602 -1.74268 0.23
1.79731 4.9261 -1.7477 0.17
1.78523 4.90915 -1.74172 0.24
1.77528 4.92019 -1.74673 0.18
1.7622 4.90225 -1.74174 0.23
1.74426 4.91433 -1.74676 0.21
1.73021 4.90339 -1.74378 0.22
1.71322 4.90646 -1.7468 0.21
1.69918 4.89752 -1.74382 0.22
1.68124 4.9086 -1.74984 0.21
1.67617 4.89463 -1.74485 0.22
1.65723 4.90771 -1.75187 0.19
1.64417 4.89377 -1.74688 0.23
1.62816 4.89184 -1.7479 0.18
1.61509 4.87789 -1.74392 0.24
1.60008 4.87396 -1.74394 0.18
1.58408 4.87403 -1.74496 0.24
1.56806 4.8711 -1.74498 0.19
1.56204 4.86512 -1.74398 0.25
1.5421 4.87821 -1.75001 0.19
1.53101 4.85926 -1.74402 0.22
1.51108 4.87235 -1.75104 0.19
1.49999 4.8544 -1.74506 0.23
1.48202 4.85948 -1.74908 0.19
1.47191 4.83752 -1.74209 0.21
1.459 4.85558 -1.7491 0.19
1.4479 4.83362 -1.74212 0.11
1.42993 4.8397 -1.74714 0.18
1.4159 4.83276 -1.74516 0.23
1.39793 4.83884 -1.74918 0.18
1.3888 4.81288 -1.74119 0.25
1.36887 4.82697 -1.74821 0.2
1.3648 4.81199 -1.74322 0.23
1.34782 4.81506 -1.74624 0.19
1.33279 4.80913 -1.74526 0.25
1.31679 4.8082 -1.74728 0.18
1.30472 4.79325 -1.74229 0.25
1.28675 4.79933 -1.74731 0.2
1.27369 4.78639 -1.74333 0.25
1.26065 4.77844 -1.74234 0.23
1.24772 4.7915 -1.74836 0.2
1.23565 4.77655 -1.74437 0.23
1.21965 4.77762 -1.74639 0.23
1.20758 4.76167 -1.74241 0.23
1.1896 4.76575 -1.74543 0.22
1.17853 4.7508 -1.74144 0.18
1.16153 4.75088 -1.74346 0.26
1.15353 4.74991 -1.74447 0.23
1.13852 4.74698 -1.74449 0.2
1.12448 4.73904 -1.74351 0.25
1.10454 4.75013 -1.74953 0.19
1.09642 4.72516 -1.74254 0.25
1.0804 4.72223 -1.74256 0.22
1.06144 4.72931 -1.74758 0.19
1.05431 4.70234 -1.73959 0.26
1.04335 4.71039 -1.74361 0.23
1.02537 4.71247 -1.74663 0.2
1.01627 4.69151 -1.73964 0.25
1.00027 4.69158 -1.74266 0.22
0.985244 4.68565 -1.74268 0.16
0.973188 4.6737 -1.73969 0.28
0.95422 4.67978 -1.74471 0.24
0.94226 4.68784 -1.74873 0.2
0.934151 4.66487 -1.74174 0.14
0.916168 4.66795 -1.74476 0.21
0.902142 4.66201 -1.74478 0.18
0.894033 4.63905 -1.73779 0.27
0.877041 4.64012 -1.74081 0.23
0.859049 4.6412 -1.74383 0.21
0.848975 4.62524 -1.73984 0.27
0.83801 4.63229 -1.74385 0.23
0.82496 4.62135 -1.74187 0.25
0.810924 4.61341 -1.74089 0.19
0.797892 4.60647 -1.7399 0.27
0.784847 4.59652 -1.73892 0.25
0.76587 4.60061 -1.74294 0.26
0.749864 4.59868 -1.74496 0.24
0.743831 4.5917 -1.74297 0.18
0.736722 4.56873 -1.73598 0.29
0.71775 4.57382 -1.741 0.25
0.702724 4.56788 -1.74102 0.26
0.688698 4.56194 -1.74104 0.25
0.670711 4.56402 -1.74506 0.27
0.659646 4.55007 -1.74207 0.26
0.654609 4.54209 -1.74008 0.27
0.640579 4.53515 -1.74009 0.27
0.624567 4.53222 -1.74111 0.29
0.606581 4.5343 -1.74513 0.25
0.593535 4.52436 -1.74315 0.29
0.578524 4.52143 -1.74517 0.27
0.564484 4.51249 -1.74419 0.28
0.552439 4.50254 -1.7432 0.27
0.549382 4.49055 -1.73921 0.27
0.540297 4.47259 -1.73422 0.27
0.525272 4.46666 -1.73524 0.31
0.512242 4.45971 -1.73525 0.3
0.501181 4.44676 -1.73227 0.33
0.484175 4.44484 -1.73429 0.36
0.471135 4.43589 -1.7333 0.34
0.45711 4.42995 -1.73432 0.39
0.451082 4.42398 -1.73333 0.39
0.434081 4.42306 -1.73535 0.34
0.421041 4.41411 -1.73536 0.41
0.406015 4.40818 -1.73538 0.39
0.391995 4.40324 -1.7364 0.34
0.374984 4.40031 -1.73842 0.32
0.369875 4.37734 -1.73143 0.44
0.352956 4.39341 -1.74044 0.36
0.343881 4.37745 -1.73646 0.38
0.332822 4.3645 -1.73447 0.38
0.321767 4.35255 -1.73249 0.43
0.301791 4.35663 -1.73751 0.29
0.294692 4.33566 -1.73152 0.54
0.276701 4.33674 -1.73554 0.39
0.269684 4.33277 -1.73555 0.29
0.256649 4.32483 -1.73556 0.29
0.239648 4.32391 -1.73858 0.28
0.220662 4.32599 -1.74261 0.26
0.212579 4.30802 -1.73862 0.29
0.199534 4.29808 -1.73763 0.28
0.185509 4.29214 -1.73865 0.26
0.168498 4.28922 -1.74067 0.26
0.160495 4.28825 -1.74168 0.24
0.159358 4.25926 -1.73268 0.22
0.145333 4.25332 -1.7337 0.24
0.133278 4.24137 -1.73172 0.38
0.12818 4.22039 -1.72672 0.55
0.104233 4.2305 -1.73375 0.32
0.085243 4.23158 -1.73877 0.25
0.0731884 4.21963 -1.73679 0.26
0.060225 4.22669 -1.7418 0.32
0.0571062 4.2017 -1.73381 0.31
0.0460525 4.18975 -1.73282 0.29
0.0290475 4.18783 -1.73584 0.25
0.0189884 4.17487 -1.73386 0.28
0.00396358 4.16894 -1.73487 0.29
-0.0120514 4.16501 -1.73689 0.3
-0.011123 4.15 -1.73189 0.25
-0.0321081 4.15209 -1.73692 0.32
-0.045143 4.14415 -1.73693 0.29
-0.0542066 4.13019 -1.73495 0.29
-0.0682358 4.12325 -1.73596 0.3
-0.0792907 4.1113 -1.73398 0.28
-0.0943144 4.10536 -1.736 0.29
-0.103318 4.1044 -1.73701 0.29
-0.111387 4.08944 -1.73402 0.29
-0.127402 4.08551 -1.73604 0.31
-0.13945 4.07456 -1.73605 0.29
-0.15745 4.07364 -1.73907 0.3
-0.168504 4.06169 -1.73809 0.3
-0.175583 4.04472 -1.7341 0.23
-0.183651 4.02975 -1.73211 0.28
-0.191664 4.02679 -1.73212 0.25
-0.213638 4.03089 -1.73914 0.23
-0.221707 4.01592 -1.73615 0.25
-0.254613 4.03407 -1.74919 0
-0.252751 4.00506 -1.73919 0
-0.266785 3.99712 -1.74021 0
-0.477551 3.82304 -1.73847 0
-0.48363 3.80607 -1.73448 0
-0.501638 3.80314 -1.7385 0
-0.512692 3.79119 -1.73752 0
-0.515785 3.77121 -1.73252 0
-0.539702 3.78731 -1.74355 0
-0.545781 3.77034 -1.73956 0
-0.532968 3.73128 -1.72554 0
-0.573843 3.75546 -1.74259 0
-0.570975 3.72745 -1.73459 0
-0.585004 3.72051 -1.73561 0
-0.620917 3.73667 -1.74965 0
-0.620032 3.71266 -1.74165 0.02
-0.627048 3.70869 -1.74266 0.03
-0.646056 3.70578 -1.74668 0.08
-0.659094 3.69683 -1.7477 0.09
-0.668152 3.68387 -1.74671 0.09
-0.677216 3.66991 -1.74472 0.18
-0.701194 3.67302 -1.75175 0.16
-0.705282 3.65404 -1.74775 0.26
-0.703344 3.64103 -1.74375 0.25
-0.728316 3.64514 -1.75178 0.27
-0.73738 3.63118 -1.74979 0.23
-0.737488 3.60818 -1.7438 0.25
-0.753506 3.60325 -1.74682 0.23
-0.765554 3.5923 -1.74683 0.26
-0.782568 3.58837 -1.74985 0.24
-0.787598 3.58139 -1.74986 0.3
-0.796656 3.56843 -1.74887 0.27
-0.809694 3.55949 -1.74989 0.27
-0.819752 3.54654 -1.7489 0.27
-0.821846 3.52654 -1.7439 0.29
-0.839858 3.52262 -1.74792 0.29
-0.857871 3.5187 -1.75195 0.27
-0.871909 3.50976 -1.75296 0.27
-0.874945 3.50178 -1.75197 0.28
-0.894948 3.49986 -1.75699 0.29
-0.892065 3.47485 -1.74999 0.22
-0.903113 3.4639 -1.75 0.28
-0.918146 3.45596 -1.75202 0.25
-0.926209 3.442 -1.75003 0.26
-0.940246 3.43306 -1.75205 0.27
-0.952238 3.43411 -1.75506 0.27
-0.960301 3.42015 -1.75407 0.26
-0.965378 3.40317 -1.75108 0.26
-0.985386 3.40026 -1.75611 0.27
-0.993448 3.38629 -1.75512 0.27
-0.995537 3.3673 -1.75012 0.17
-1.00957 3.35836 -1.75214 0.29
-1.01565 3.34239 -1.75015 0.25
-1.03063 3.34546 -1.75516 0.27
-1.04666 3.33853 -1.75718 0.23
-1.04277 3.31451 -1.75018 0.21
-1.06178 3.31059 -1.7552 0.28
-1.07383 3.29964 -1.75522 0.25
-1.07791 3.28266 -1.75223 0.27
-1.1029 3.28277 -1.75925 0.25
-1.10095 3.27076 -1.75625 0.21
-1.10503 3.25378 -1.75326 0.26
-1.12504 3.25087 -1.75828 0.25
-1.1341 3.23691 -1.7573 0.26
-1.13718 3.21892 -1.7543 0.26
-1.15122 3.21098 -1.75632 0.27
-1.16028 3.19702 -1.75533 0.26
-1.17033 3.18507 -1.75534 0.25
-1.18133 3.18411 -1.75836 0.26
-1.19238 3.17316 -1.75937 0.27
-1.19845 3.15719 -1.75738 0.27
-1.21249 3.14825 -1.7594 0.25
-1.21756 3.13227 -1.7574 0.19
-1.22363 3.1163 -1.75541 0.29
-1.23268 3.10434 -1.75542 0.25
-1.23473 3.09535 -1.75343 0.29
-1.24876 3.08641 -1.75544 0.29
-1.25981 3.07546 -1.75646 0.27
-1.26588 3.05948 -1.75447 0.28
-1.29884 3.06563 -1.7655 0.26
-1.29197 3.0396 -1.7575 0.19
-1.29604 3.02261 -1.75551 0.29
-1.30505 3.01965 -1.75752 0.24
-1.32905 3.01876 -1.76454 0.25
-1.32316 2.99473 -1.75754 0.3
-1.33621 2.98379 -1.75856 0.29
-1.35921 2.98189 -1.76458 0.26
-1.35731 2.96088 -1.75958 0.3
-1.37433 2.95396 -1.7636 0.29
-1.38539 2.94201 -1.76462 0.25
-1.38942 2.93502 -1.76462 0.29
-1.39748 2.92106 -1.76363 0.28
-1.40653 2.9091 -1.76365 0.28
-1.42157 2.90016 -1.76666 0.29
-1.42066 2.87916 -1.76166 0.31
-1.42274 2.86217 -1.75867 0.29
-1.44276 2.85626 -1.76369 0.27
-1.43683 2.84223 -1.75869 0.3
-1.44589 2.82927 -1.7587 0.29
-1.46092 2.82033 -1.76172 0.29
-1.47097 2.80838 -1.76273 0.27
-1.49099 2.80247 -1.76775 0.26
-1.48111 2.77742 -1.75874 0.3
-1.49714 2.76949 -1.76276 0.27
-1.49823 2.7505 -1.75877 0.27
-1.51621 2.75358 -1.76479 0.26
-1.52626 2.74162 -1.7658 0.3
-1.53233 2.72565 -1.76481 0.28
-1.5374 2.71067 -1.76282 0.28
-1.54746 2.69771 -1.76383 0.31
-1.55751 2.68576 -1.76484 0.27
-1.56557 2.67179 -1.76485 0.29
-1.57458 2.66883 -1.76686 0.3
-1.57666 2.65084 -1.76387 0.3
-1.57276 2.62982 -1.75787 0.27
-1.59976 2.62794 -1.7669 0.26
-1.60483 2.61296 -1.76491 0.27
-1.61488 2.60001 -1.76592 0.29
-1.62095 2.58503 -1.76493 0.28
-1.63299 2.57409 -1.76694 0.29
-1.63005 2.56307 -1.76394 0.29
-1.64608 2.55414 -1.76796 0.25
-1.65614 2.54119 -1.76797 0.27
-1.64426 2.51613 -1.75996 0.3
-1.66029 2.5072 -1.76298 0.28
-1.66636 2.49223 -1.76299 0.28
-1.6794 2.48129 -1.765 0.29
-1.69639 2.48236 -1.77002 0.25
-1.70246 2.46739 -1.77003 0.27
-1.69656 2.44636 -1.76403 0.31
-1.70462 2.4324 -1.76404 0.27
-1.71666 2.42145 -1.76605 0.29
-1.72273 2.40648 -1.76506 0.28
-1.74076 2.39756 -1.77008 0.28
-1.72784 2.3815 -1.76307 0.3
-1.74388 2.37257 -1.76609 0.29
-1.75293 2.35961 -1.7671 0.26
-1.76199 2.34565 -1.76811 0.29
-1.77205 2.33369 -1.76913 0.28
-1.76913 2.31468 -1.76513 0.3
-1.77719 2.30071 -1.76514 0.29
-1.78521 2.29575 -1.76715 0.26
-1.79228 2.28178 -1.76716 0.27
-1.8113 2.27386 -1.77218 0.27
-1.80341 2.25183 -1.76517 0.3
-1.82344 2.24392 -1.7712 0.27
-1.83549 2.23197 -1.77321 0.28
-1.84454 2.21901 -1.77422 0.27
-1.84662 2.20202 -1.77223 0.29
-1.84866 2.19403 -1.77123 0.27
-1.85871 2.18107 -1.77324 0.29
-1.86078 2.16508 -1.77025 0.31
-1.86685 2.15011 -1.77025 0.27
-1.8789 2.13816 -1.77327 0.27
-1.87698 2.12015 -1.76927 0.2
-1.87307 2.10113 -1.76527 0.29
-1.88009 2.09516 -1.76628 0.25
-1.90212 2.08726 -1.7733 0.24
-1.90319 2.07126 -1.7703 0.25
-1.90826 2.05529 -1.77031 0
-1.9233 2.04535 -1.77333 0
-1.93336 2.0314 -1.77534 0
-1.69622 -1.78969 -1.65742 0
-1.67226 -1.7968 -1.64939 0
-1.63628 -1.79795 -1.63735 0
-1.61328 -1.79606 -1.62832 0.06
-1.59533 -1.80513 -1.6233 0.18
-1.57036 -1.81024 -1.61627 0.12
-1.5544 -1.81931 -1.61125 0.21
-1.55247 -1.83432 -1.61325 0.18
-1.54452 -1.84736 -1.61224 0.26
-1.53558 -1.8594 -1.61123 0.23
-1.53761 -1.86839 -1.61324 0.2
-1.52366 -1.87745 -1.60922 0.25
-1.52273 -1.89345 -1.61122 0.23
-1.51478 -1.90549 -1.61121 0.19
-1.51885 -1.92347 -1.61522 0.26
-1.5059 -1.93353 -1.61221 0.23
-1.55604 -1.97231 -1.63627 0.28
-1.55508 -1.98031 -1.63627 0.26
-1.56016 -1.99929 -1.64128 0.21
-1.58326 -2.02619 -1.65331 0.27
-1.5663 -2.03426 -1.64929 0.42
-1.55535 -2.04531 -1.64727 0.32
-1.5434 -2.05636 -1.64526 0.27
-1.55048 -2.07633 -1.65027 0.26
-1.54054 -2.08837 -1.64926 0.35
-1.52354 -2.08845 -1.64324 0.33
-1.49155 -2.08859 -1.6332 0.2
-1.49763 -2.10756 -1.63821 0.3
-1.52375 -2.13745 -1.65225 0.22
-1.51079 -2.14751 -1.64923 0.12
-1.53391 -2.1764 -1.66226 0.18
-1.50893 -2.18051 -1.65423 0.23
-1.54002 -2.20438 -1.66927 0.2
-1.55512 -2.22931 -1.67829 0.31
-1.52413 -2.23045 -1.66825 0.22
-1.50217 -2.23654 -1.66223 0.13
-1.51726 -2.26048 -1.67125 0.18
-1.51132 -2.2745 -1.67224 0.13
-1.52742 -2.30043 -1.68227 0.3
-1.53848 -2.31538 -1.68828 0.25
-1.53254 -2.32941 -1.68927 0.26
-1.5276 -2.34343 -1.69027 0.23
-1.47859 -2.33465 -1.67221 0.24
-1.45161 -2.33676 -1.66318 0.09
-1.44165 -2.34781 -1.66217 0.18
-1.43571 -2.36183 -1.66316 0.2
-1.43479 -2.37884 -1.66516 0.09
-1.51699 -2.43448 -1.70327 0.2
-1.52207 -2.45445 -1.70927 0.25
-1.5031 -2.46154 -1.70425 0.22
-1.48915 -2.4706 -1.70124 0.26
-1.4812 -2.48363 -1.70123 0.23
-1.48729 -2.50561 -1.70724 0.21
-1.49137 -2.52559 -1.71224 0.27
-1.45333 -2.51176 -1.6972 0.15
-1.4524 -2.52876 -1.7002 0.21
-1.43945 -2.53882 -1.69818 0.19
-1.44253 -2.5588 -1.70319 0.1
-1.46766 -2.59269 -1.71822 0.21
-1.43567 -2.59083 -1.70718 0.2
-1.42572 -2.60288 -1.70717 0.24
-1.43481 -2.62684 -1.71419 0.25
-1.43385 -2.63584 -1.71619 0.27
-1.40987 -2.63795 -1.70916 0.25
-1.30872 -2.59239 -1.66704 0.22
-1.29776 -2.60244 -1.66502 0.22
-1.29082 -2.61647 -1.66602 0.23
-1.25281 -2.60964 -1.65297 0.21
-1.25589 -2.62862 -1.65798 0.09
-1.34013 -2.69425 -1.69808 0.21
-1.35223 -2.7202 -1.7071 0.24
-1.31722 -2.71535 -1.69506 0.12
-1.28422 -2.7115 -1.68402 0.18
-1.2462 -2.70367 -1.66997 0.05
-1.24828 -2.72366 -1.67498 0.17
-1.23232 -2.73073 -1.67196 0.19
-1.22734 -2.73675 -1.67195 0.1
-1.21438 -2.74581 -1.66994 0.18
-1.19141 -2.74891 -1.66291 0.22
-1.18446 -2.76194 -1.66391 0.2
-1.15045 -2.75609 -1.65186 0.12
-1.12346 -2.75521 -1.64283 0.21
-1.10047 -2.75731 -1.63681 0.11
-1.08146 -2.75239 -1.62978 0.2
-1.04845 -2.74654 -1.61874 0.11
-1.02947 -2.75062 -1.61372 0.2
-1.00348 -2.75074 -1.60569 0.11
-0.978485 -2.74985 -1.59766 0.2
-0.943461 -2.741 -1.58462 0.2
-0.905433 -2.73117 -1.57157 0.09
-0.874387 -2.7173 -1.55854 0.09
-0.85741 -2.72138 -1.55452 0.09
-0.823389 -2.71353 -1.54248 0
-0.813434 -2.72357 -1.54147 0
-0.791447 -2.72467 -1.53444 0
-0.77246 -2.72675 -1.53042 0
-0.757495 -2.73382 -1.5274 0
-1.10368 -3.05229 -1.70584 0.04
-1.11078 -3.07726 -1.71385 0.14
-1.0888 -3.07936 -1.70782 0.16
-1.07484 -3.08742 -1.70581 0.16
-1.07693 -3.10941 -1.71181 0.16
-1.06296 -3.11747 -1.7088 0.04
-1.05799 -3.12349 -1.70879 0.07
-1.07813 -3.1604 -1.72382 0.16
-1.06718 -3.17145 -1.72381 0.05
-1.04018 -3.16857 -1.71477 0.15
-1.0503 -3.19752 -1.72479 0.2
-1.04236 -3.21156 -1.72578 0.23
-1.02538 -3.21663 -1.72276 0.2
-1.03345 -3.2336 -1.72877 0.16
-1.00846 -3.23371 -1.72174 0.13
-1.00452 -3.24972 -1.72474 0.2
-0.991564 -3.25878 -1.72372 0.19
-0.998676 -3.28675 -1.73274 0.2
-0.967659 -3.27989 -1.7217 0.22
-0.948681 -3.28397 -1.71768 0.24
-0.942744 -3.299 -1.71967 0.26
-0.948807 -3.31497 -1.72568 0.29
-0.946886 -3.33398 -1.72968 0.26
-0.91386 -3.32512 -1.71864 0.27
-0.888856 -3.32223 -1.71061 0.23
-0.869879 -3.32632 -1.70659 0.27
-0.860935 -3.33935 -1.70658 0.19
-0.834932 -3.33647 -1.69855 0.22
-0.840991 -3.35144 -1.70456 0.18
-0.823016 -3.35652 -1.70154 0.23
-0.813065 -3.36757 -1.70153 0.19
-0.801109 -3.37762 -1.70051 0.24
-0.793165 -3.39065 -1.7015 0.23
-0.782213 -3.4017 -1.70149 0.18
-0.766243 -3.40777 -1.69847 0.26
-0.758258 -3.41081 -1.69746 0.25
-0.755336 -3.42982 -1.70146 0.24
-0.73635 -3.4319 -1.69744 0.22
-0.727406 -3.44494 -1.69843 0.28
-0.725487 -3.46495 -1.70343 0.25
-0.731599 -3.49292 -1.71244 0.2
-0.708598 -3.49102 -1.70641 0.24
-0.7227 -3.51696 -1.71643 0.18
-0.715759 -3.53099 -1.71843 0.25
-0.708822 -3.54602 -1.72042 0.24
-0.701884 -3.56105 -1.72341 0.27
-0.702981 -3.58505 -1.73042 0.24
-0.691022 -3.5941 -1.7294 0.27
-0.684088 -3.61013 -1.7324 0.28
-0.69322 -3.64309 -1.74341 0.39
-0.657118 -3.61525 -1.72636 0.11
-0.661225 -3.64223 -1.73537 0.17
-0.649274 -3.65328 -1.73536 0.05
-0.645352 -3.6723 -1.73936 0.07
-0.638411 -3.68633 -1.74135 0
-0.622444 -3.6934 -1.73933 0
-0.589397 -3.67954 -1.72729 0
-0.582416 -3.68358 -1.72628 0
-0.540328 -3.65876 -1.70823 0
-0.53741 -3.67877 -1.71323 0
-0.535499 -3.70078 -1.71923 0
-0.497429 -3.68095 -1.70418 0
-0.497522 -3.70395 -1.71119 0
-0.501634 -3.73193 -1.72019 0
-0.500727 -3.75493 -1.72619 0
-0.474659 -3.73605 -1.71416 0
-0.278115 -3.83591 -1.69594 0
-0.263143 -3.84198 -1.69492 0
-0.259224 -3.86199 -1.69992 0
-0.236207 -3.8561 -1.69289 0
-0.239326 -3.88608 -1.7029 0
-0.247469 -3.92204 -1.71491 0.1
-0.250537 -3.93903 -1.72092 0.16
-0.225516 -3.93214 -1.71289 0.04
-0.211543 -3.9382 -1.71187 0.17
-0.193557 -3.94028 -1.70785 0.2
-0.18461 -3.95332 -1.71084 0.22
-0.162604 -3.95042 -1.70482 0.28
-0.141599 -3.94751 -1.69879 0.3
-0.144662 -3.9635 -1.7048 0.21
-0.119641 -3.95661 -1.69677 0.13
-0.0915958 -3.94373 -1.68673 0.21
-0.0705898 -3.94082 -1.68071 0.11
-0.0616434 -3.95386 -1.6837 0.2
-0.0476676 -3.95892 -1.68168 0.11
-0.03873 -3.97396 -1.68467 0.2
-0.0247574 -3.98002 -1.68366 0.1
-0.0137524 -3.97807 -1.68064 0.19
-0.00178742 -3.98612 -1.68063 0.1
0.0061459 -4.00216 -1.68362 0.19
0.0191151 -4.00921 -1.68361 0.11
0.0330831 -4.01628 -1.68259 0.2
0.0520827 -4.01536 -1.67857 0.11
0.062028 -4.0284 -1.68056 0.19
0.0609683 -4.0434 -1.68556 0.11
0.0507979 -4.08635 -1.70058 0.18
0.0758362 -4.07546 -1.69255 0.21
0.0847741 -4.0905 -1.69554 0.1
0.0957272 -4.10155 -1.69653 0.2
0.0996378 -4.12357 -1.70252 0.27
0.114614 -4.12863 -1.70151 0.23
0.133674 -4.11272 -1.69248 0.23
0.130542 -4.1457 -1.70349 0.23
0.153569 -4.1378 -1.69646 0.18
0.183638 -4.11894 -1.68442 0.29
0.190563 -4.13697 -1.68842 0.2
0.205545 -4.14103 -1.6874 0.14
0.212471 -4.15906 -1.69139 0.49
0.22342 -4.17111 -1.69338 0.26
0.217322 -4.19608 -1.70239 0.41
0.238337 -4.19117 -1.69737 0.31
0.25734 -4.18926 -1.69234 0.27
0.270305 -4.19731 -1.69233 0.2
0.286294 -4.19938 -1.69031 0.27
0.303287 -4.20046 -1.68829 0.25
0.318262 -4.20553 -1.68627 0.26
0.335314 -4.1916 -1.67825 0.23
0.370434 -4.15976 -1.66121 0.12
0.387426 -4.16083 -1.65819 0.21
0.400395 -4.16789 -1.65817 0.11
0.414373 -4.17295 -1.65816 0.2
0.433384 -4.16903 -1.65314 0.11
0.446345 -4.17809 -1.65312 0.19
0.456355 -4.17513 -1.65111 0.11
0.470332 -4.18019 -1.65009 0.2
0.486321 -4.18226 -1.64808 0.11
0.498282 -4.19132 -1.64806 0.21
0.515279 -4.19139 -1.64604 0.17
0.528248 -4.19845 -1.64603 0.26
0.544245 -4.19852 -1.64301 0.23
0.553242 -4.19856 -1.641 0.18
0.57125 -4.19564 -1.63698 0.27
0.583216 -4.20369 -1.63796 0.25
0.59719 -4.20975 -1.63795 0.26
0.616206 -4.20483 -1.63293 0.26
0.634214 -4.20191 -1.6289 0.27
0.645168 -4.21296 -1.63089 0.27
0.665192 -4.20605 -1.62487 0.26
0.675209 -4.20109 -1.62086 0.27
0.689182 -4.20715 -1.62084 0.27
0.706187 -4.20523 -1.61782 0.26
0.721173 -4.2083 -1.6168 0.26
0.740193 -4.20238 -1.61178 0.26
0.752158 -4.21043 -1.61177 0.28
0.77017 -4.20651 -1.60774 0.28
0.777165 -4.20754 -1.60674 0.27
0.790131 -4.2156 -1.60772 0.27
0.810163 -4.20669 -1.6017 0.27
0.827171 -4.20376 -1.59768 0.27
0.841145 -4.20982 -1.59766 0.28
0.862192 -4.19691 -1.58964 0.27
0.876175 -4.20098 -1.58962 0.27
0.87913 -4.21199 -1.59262 0.27
0.896139 -4.20906 -1.5896 0.27
0.91416 -4.20314 -1.58458 0.29
0.929148 -4.20521 -1.58256 0.29
0.948176 -4.19729 -1.57653 0.28
0.95308 -4.22131 -1.58453 0.27
0.975128 -4.20841 -1.5765 0.3
0.988177 -4.19547 -1.57049 0.29
0.997116 -4.21051 -1.57448 0.29
1.01515 -4.20259 -1.56946 0.28
1.03215 -4.20066 -1.56644 0.28
1.04917 -4.19574 -1.56242 0.28
1.06315 -4.1988 -1.5614 0.27
1.07916 -4.19587 -1.55738 0.27
1.09718 -4.18995 -1.55336 0.27
1.1062 -4.18599 -1.55035 0.27
1.12221 -4.18206 -1.54733 0.27
1.13822 -4.18013 -1.54431 0.27
1.15422 -4.1782 -1.54129 0.26
1.17225 -4.17028 -1.53627 0.25
1.18623 -4.17334 -1.53525 0.26
1.1972 -4.18239 -1.53724 0.24
1.21126 -4.16545 -1.52922 0.18
1.22424 -4.1715 -1.53021 0.28
1.23621 -4.17756 -1.5302 0.25
1.25424 -4.17064 -1.52517 0.2
1.27025 -4.16571 -1.52215 0.27
1.28121 -4.17575 -1.52414 0.23
1.29621 -4.17482 -1.52212 0.2
1.30624 -4.16786 -1.51811 0.25
1.31315 -4.19089 -1.52511 0.2
1.33422 -4.17199 -1.51608 0.12
1.34923 -4.16905 -1.51306 0.2
1.36423 -4.16812 -1.51104 0.11
1.37621 -4.17417 -1.51203 0.19
1.39019 -4.17823 -1.51201 0.19
1.40124 -4.16428 -1.506 0.04
1.41017 -4.18232 -1.51099 0
1.4272 -4.1744 -1.50597 0
1.4412 -4.17446 -1.50495 0
1.45823 -4.16553 -1.49993 0
1.4702 -4.17358 -1.50092 0
1.47811 -4.19562 -1.50791 0
1.49119 -4.17568 -1.4999 0
1.49404 -4.21369 -1.5129 0
1.5131 -4.19777 -1.50587 0
1.5129 -4.24777 -1.52388 0
1.51675 -4.28579 -1.53688 0
1.50742 -4.36874 -1.56889 0
1.50619 -4.42674 -1.5899 0
1.50202 -4.46972 -1.60591 0
1.50587 -4.50973 -1.61991 0
1.51376 -4.53677 -1.6299 0
1.52773 -4.54283 -1.62989 0.06
1.5407 -4.55188 -1.63287 0.16
1.54859 -4.57892 -1.64187 0.09
1.5717 -4.55002 -1.62884 0.21
1.57857 -4.58205 -1.63983 0.16
1.58759 -4.57709 -1.63782 0.29
1.60665 -4.56217 -1.6298 0.19
1.62367 -4.55625 -1.62678 0.23
1.6285 -4.59827 -1.64177 0.19
1.63942 -4.61831 -1.64776 0.25
1.65646 -4.60839 -1.64274 0.34
1.67248 -4.60446 -1.63972 0.28
1.67947 -4.60649 -1.63971 0.27
1.69242 -4.61855 -1.6437 0.29
1.70538 -4.6276 -1.64569 0.29
1.72138 -4.62667 -1.64467 0.31
1.73944 -4.61175 -1.63764 0.23
1.75138 -4.6278 -1.64163 0.29
1.76435 -4.63586 -1.64462 0.44
1.77539 -4.62291 -1.6386 0.28
1.78938 -4.62597 -1.63859 0.27
1.8003 -4.64702 -1.64558 0.32
1.82141 -4.61711 -1.63255 0.32
1.8354 -4.62117 -1.63353 0.28
1.84836 -4.63123 -1.63652 0.24
1.86335 -4.6323 -1.6355 0.27
1.87543 -4.61135 -1.62749 0.37
1.89044 -4.60841 -1.62447 0.36
1.90237 -4.62747 -1.63146 0.27
1.91534 -4.63552 -1.63344 0.24
1.93135 -4.63059 -1.63042 0.37
1.94123 -4.66264 -1.64141 0.26
1.95725 -4.65571 -1.63839 0.28
1.9743 -4.64378 -1.63237 0.26
1.9823 -4.64282 -1.63236 0.31
1.99936 -4.62689 -1.62434 0.3
2.01435 -4.62896 -1.62432 0.3
2.02833 -4.63502 -1.62631 0.25
2.04335 -4.62908 -1.62329 0.31
2.05731 -4.63915 -1.62627 0.35
2.07028 -4.6482 -1.62926 0.36
2.08138 -4.62125 -1.61824 0.11
2.09741 -4.61432 -1.61523 0.19
2.11241 -4.61439 -1.61421 0.1
2.12534 -4.63044 -1.61919 0.18
2.14036 -4.62551 -1.61718 0.23
2.1564 -4.61458 -1.61216 0.1
2.16936 -4.62664 -1.61614 0.21
2.17632 -4.63667 -1.61913 0.19
2.18721 -4.66271 -1.62912 0.38
2.20119 -4.66977 -1.63111 0.31
2.21826 -4.65085 -1.62309 0.28
2.23119 -4.66791 -1.62907 0.32
2.25137 -4.621 -1.61005 0.19
2.26432 -4.63505 -1.61503 0.29
2.27027 -4.64708 -1.61903 0.23
2.28213 -4.68213 -1.63201 0.23
2.29819 -4.6682 -1.62699 0.32
2.31425 -4.65127 -1.61897 0.27
2.3282 -4.66533 -1.62396 0.25
2.34217 -4.67239 -1.62694 0.28
2.3593 -4.63947 -1.61392 0.3
2.37431 -4.63553 -1.6119 0.23
2.37917 -4.67255 -1.6259 0.28
2.39315 -4.67762 -1.62688 0.28
2.40814 -4.67868 -1.62687 0.39
2.42316 -4.67575 -1.62585 0.3
2.43818 -4.66881 -1.62283 0.29
2.45422 -4.65888 -1.61881 0.37
2.46818 -4.66894 -1.6218 0.3
2.4752 -4.66397 -1.61979 0.3
2.49126 -4.64905 -1.61477 0.2
2.50633 -4.63111 -1.60675 0.28
2.52029 -4.64117 -1.61073 0.25
2.53526 -4.64924 -1.61371 0.23
2.54814 -4.67829 -1.6237 0.32
2.56321 -4.66136 -1.61768 0.29
2.57127 -4.6454 -1.61167 0.26
2.58518 -4.66946 -1.62066 0.34
2.60127 -4.64553 -1.61164 0.3
2.61529 -4.64059 -1.60962 0.27
2.63022 -4.65765 -1.6156 0.26
2.64424 -4.65272 -1.61359 0.3
2.6593 -4.63778 -1.60757 0.21
2.66627 -4.64681 -1.61156 0.28
2.68128 -4.64488 -1.61054 0.25
2.69518 -4.66794 -1.61853 0.28
2.71027 -4.647 -1.61151 0.26
2.72529 -4.64007 -1.60849 0.22
2.73935 -4.62613 -1.60347 0.29
2.75443 -4.6062 -1.59545 0.22
2.76844 -4.60226 -1.59444 0.29
2.77538 -4.61729 -1.59943 0.23
2.79123 -4.65636 -1.61441 0.23
2.8053 -4.63842 -1.6084 0.3
2.81934 -4.62948 -1.60438 0.22
2.83428 -4.64355 -1.61036 0.22
2.84836 -4.62461 -1.60335 0.47
2.86335 -4.62567 -1.60433 0.48
2.87129 -4.64071 -1.60932 0.48
2.88622 -4.66077 -1.6173 0.3
2.90029 -4.64184 -1.61029 0.3
2.91528 -4.6449 -1.61127 0.29
2.92926 -4.65096 -1.61425 0.27
2.94522 -4.66003 -1.61823 0.3
2.95829 -4.64209 -1.61122 0.2
2.96719 -4.66813 -1.62121 0.4
2.98125 -4.65219 -1.61619 0.3
2.99619 -4.66825 -1.62218 0.26
3.01028 -4.64532 -1.61416 0.29
3.02432 -4.63438 -1.61014 0.28
3.03836 -4.62444 -1.60612 0.38
3.0514 -4.6145 -1.60311 0.28
3.05844 -4.60453 -1.5991 0.06
3.07625 -4.6536 -1.61808 0
3.09124 -4.65767 -1.62106 0
3.10718 -4.67174 -1.62605 0
3.16552 -4.585 -1.59597 0
3.2047 -4.54017 -1.57992 0
3.22451 -4.59026 -1.5999 0
3.24144 -4.60733 -1.60688 0
3.24843 -4.61036 -1.60887 0
3.26248 -4.59742 -1.60386 0
3.27844 -4.60849 -1.60884 0
3.29246 -4.60355 -1.60782 0
3.30646 -4.60361 -1.60881 0
3.32729 -4.6477 -1.62579 0
3.34521 -4.66778 -1.63477 0
5.02874 -4.09314 -1.62974 0
5.02681 -4.07413 -1.62374 0.07
5.01798 -4.0301 -1.60675 0.04
5.05187 -4.06024 -1.62371 0.17
5.0659 -4.05431 -1.62369 0.21
5.06701 -4.02731 -1.61569 0.23
5.09097 -4.03741 -1.62366 0.14
5.11195 -4.04451 -1.62964 0.26
5.112 -4.03151 -1.62564 0.22
5.1151 -4.00752 -1.61863 0.18
5.12614 -3.99657 -1.61662 0.26
5.14513 -4.00065 -1.62159 0.22
5.15121 -3.98168 -1.61658 0.12
5.16523 -3.97674 -1.61857 0.21
5.18423 -3.97882 -1.62255 0.18
5.19224 -3.97786 -1.62354 0.26
5.20924 -3.97793 -1.62752 0.19
5.22029 -3.96698 -1.6255 0.23
5.23928 -3.97006 -1.63048 0.2
5.2543 -3.96513 -1.63246 0.23
5.29318 -3.9983 -1.65042 0.19
5.31913 -4.01241 -1.66039 0.14
5.33012 -4.01446 -1.66338 0.21
5.33122 -3.98946 -1.65537 0.19
5.33332 -3.96547 -1.64837 0.26
5.36226 -3.9816 -1.66034 0.22
5.38126 -3.98268 -1.66431 0.3
5.37839 -3.95167 -1.65332 0.28
5.38943 -3.94172 -1.6523 0.27
5.41335 -3.96382 -1.66428 0.29
5.42042 -3.94685 -1.66127 0.25
5.42549 -3.92787 -1.65626 0.2
5.43057 -3.9089 -1.65125 0.3
5.44659 -3.90597 -1.65423 0.23
5.47454 -3.91909 -1.6642 0.23
5.50349 -3.93421 -1.67517 0.29
5.49564 -3.89718 -1.66217 0.32
5.50663 -3.90023 -1.66516 0.27
5.53657 -3.91536 -1.67713 0.27
5.52076 -3.86729 -1.65814 0.26
5.54176 -3.87038 -1.66412 0.33
5.5717 -3.88551 -1.67508 0.34
5.56186 -3.84647 -1.66109 0.31
5.56693 -3.82849 -1.65708 0.29
5.58489 -3.84057 -1.66406 0.26
5.58698 -3.81858 -1.65806 0.28
5.60996 -3.82368 -1.66503 0.26
5.61802 -3.80872 -1.66202 0.32
5.63404 -3.80579 -1.665 0.25
5.65404 -3.80687 -1.66998 0.34
5.66409 -3.79492 -1.66897 0.34
5.66016 -3.7779 -1.66297 0.32
5.6722 -3.76895 -1.66295 0.32
5.67827 -3.75198 -1.65995 0.29
5.68533 -3.73701 -1.65694 0.3
5.70335 -3.73509 -1.65991 0.32
5.71937 -3.73116 -1.66289 0.35
5.7324 -3.72321 -1.66388 0.27
5.74937 -3.73229 -1.66986 0.34
5.75046 -3.70929 -1.66386 0.27
5.7416 -3.67526 -1.65186 0.26
5.75663 -3.66932 -1.65385 0.44
5.75771 -3.64733 -1.64684 0.3
5.76677 -3.63437 -1.64583 0.3
5.78478 -3.63344 -1.64981 0.27
5.78284 -3.61844 -1.64481 0.27
5.79886 -3.61451 -1.64779 0.26
5.79696 -3.5895 -1.63979 0.28
5.79904 -3.56951 -1.63479 0.31
5.8061 -3.55454 -1.63278 0.27
5.81715 -3.54459 -1.63276 0.26
5.82918 -3.53664 -1.63275 0.19
5.83824 -3.52368 -1.63174 0.27
5.85421 -3.53175 -1.63772 0.25
5.86227 -3.51778 -1.63571 0.26
5.87331 -3.50783 -1.63569 0.26
5.88038 -3.49286 -1.63368 0.26
5.89142 -3.48291 -1.63367 0.26
5.89947 -3.47095 -1.63266 0.27
5.9025 -3.46296 -1.63066 0.21
5.91454 -3.45401 -1.63164 0.27
5.92758 -3.44707 -1.63262 0.25
5.95655 -3.4562 -1.64259 0.24
5.97059 -3.44826 -1.64457 0.32
5.97864 -3.43529 -1.64256 0.3
5.98271 -3.41831 -1.63956 0.28
5.99973 -3.41438 -1.64254 0.29
6.01671 -3.42146 -1.64952 0.31
6.02377 -3.40749 -1.64651 0.23
6.05872 -3.42264 -1.66047 0.25
6.04984 -3.3916 -1.64948 0.27
6.0579 -3.37864 -1.64847 0.27
6.06994 -3.36969 -1.64945 0.26
6.08297 -3.36175 -1.65043 0.28
6.08302 -3.35075 -1.64743 0.29
6.10104 -3.34683 -1.65141 0.3
6.12404 -3.34893 -1.65839 0.37
6.12511 -3.32993 -1.65338 0.28
6.12919 -3.31195 -1.64938 0.32
6.13824 -3.29999 -1.64936 0.35
6.13833 -3.27899 -1.64336 0.31
6.16627 -3.29511 -1.65533 0.27
6.1813 -3.29018 -1.65831 0.3
6.19334 -3.28023 -1.6593 0.27
6.19243 -3.25922 -1.6533 0.32
6.18653 -3.2332 -1.6443 0.3
6.17665 -3.20216 -1.63431 0.25
6.21161 -3.21431 -1.64627 0.15
6.21664 -3.20933 -1.64626 0.26
6.21971 -3.19134 -1.64326 0.16
6.24271 -3.19344 -1.65023 0.13
6.22984 -3.16039 -1.63824 0.19
6.23689 -3.14742 -1.63623 0.17
6.24794 -3.13747 -1.63722 0.26
6.25201 -3.12149 -1.63421 0.24
6.26301 -3.12053 -1.6372 0.22
6.27506 -3.11159 -1.63919 0.29
6.26816 -3.08556 -1.63019 0.14
6.27521 -3.07259 -1.62918 0.2
6.29423 -3.06967 -1.63416 0.27
6.27138 -3.03057 -1.61718 0.17
6.2914 -3.02766 -1.62216 0.28
6.3064 -3.03072 -1.62714 0.25
6.32641 -3.02881 -1.63312 0.24
6.33247 -3.01384 -1.63111 0.06
6.34751 -3.0069 -1.63409 0
6.31668 -2.96277 -1.61412 0
6.01674 -2.67847 -1.45845 0
6.03575 -2.67655 -1.46343 0
6.02182 -2.65749 -1.45444 0.02
6.04483 -2.65859 -1.46141 0.13
6.06384 -2.65667 -1.46639 0.16
6.07488 -2.64772 -1.46838 0.04
6.10786 -2.65687 -1.48034 0.16
6.12687 -2.65495 -1.48532 0.18
6.14988 -2.65505 -1.49229 0.09
6.19279 -2.68023 -1.51024 0.18
6.2138 -2.67933 -1.51722 0.22
6.24479 -2.68546 -1.52718 0.2
6.25882 -2.67852 -1.53017 0.22
6.28682 -2.68264 -1.53913 0.18
6.30285 -2.67671 -1.54311 0.23
6.33483 -2.68285 -1.55408 0.19
6.34484 -2.6819 -1.55706 0.24
6.36685 -2.68099 -1.56304 0.19
6.39086 -2.6801 -1.57001 0.23
6.41387 -2.6802 -1.57798 0.2
6.42392 -2.66924 -1.57797 0.22
