ply
format ascii 1.0
element vertex 1572
property double x
property double y
property double z
property float intensity
end_header
-6.51036 6.84572 -1.96833 0
-6.52751 6.8128 -1.96734 0
-6.54664 6.78288 -1.96736 0
-6.56677 6.75297 -1.96638 0
-6.58093 6.71903 -1.9654 0
-6.59408 6.68409 -1.96341 0
-6.60315 6.66813 -1.96342 0
-6.6213 6.63621 -1.96243 0
-6.63544 6.60327 -1.96145 0
-6.64661 6.56632 -1.95846 0
-6.66574 6.53641 -1.95848 0
-6.67492 6.49845 -1.95649 0
-6.68408 6.46149 -1.9535 0
-6.69514 6.44754 -1.95351 0
-6.71926 6.42064 -1.95453 0
-6.73042 6.38569 -1.95254 0
-6.73959 6.34773 -1.95055 0
-6.75075 6.31278 -1.94857 0
-6.73001 6.25569 -1.93955 0
-6.73618 6.21772 -1.93656 0.03
-6.74824 6.20377 -1.93657 0.03
-6.75541 6.1668 -1.93458 0.04
-6.77355 6.13588 -1.9336 0.03
-6.79268 6.10597 -1.93362 0.07
-6.79885 6.06799 -1.93162 0.04
-6.811 6.03405 -1.92964 0.04
-6.83014 6.00413 -1.92965 0.07
-6.8393 5.96717 -1.92766 0.04
-6.83939 5.94717 -1.92567 0.04
-6.85553 5.91524 -1.92468 0.04
-6.88065 5.88935 -1.9267 0.07
-6.88083 5.84835 -1.92271 0.04
-6.89498 5.81542 -1.92172 0.04
-6.90015 5.77744 -1.91873 0.03
-6.90931 5.74248 -1.91674 0.04
-6.91538 5.72551 -1.91674 0.04
-6.93552 5.69559 -1.91676 0.04
-6.94069 5.65862 -1.91377 0.03
-6.94885 5.62265 -1.91178 0.03
-6.95801 5.58669 -1.90979 0.03
-6.97514 5.55677 -1.90981 0.04
-6.9823 5.5208 -1.90781 0.03
-6.98947 5.48383 -1.90582 0.03
-7.00153 5.47088 -1.90683 0.03
-7.00869 5.43492 -1.90484 0.03
-7.02682 5.405 -1.90486 0.03
-7.03498 5.37003 -1.90287 0.03
-7.04912 5.33709 -1.90188 0.03
-7.05529 5.30112 -1.89989 0.03
-7.06136 5.28415 -1.8999 0.03
-7.07351 5.2512 -1.89891 0.03
-7.07568 5.21321 -1.89591 0.03
-7.09381 5.18329 -1.89593 0.03
-7.11294 5.15438 -1.89695 0.03
-7.11412 5.11538 -1.89395 0.03
-7.13125 5.08546 -1.89397 0.03
-7.14539 5.05352 -1.89398 0.03
-7.1375 5.02948 -1.88998 0.03
-7.15064 4.99754 -1.88999 0.03
-7.15581 4.96056 -1.888 0.03
-7.16695 4.92861 -1.88701 0.03
-7.17611 4.89365 -1.88502 0.03
-7.18626 4.8597 -1.88403 0.04
-7.17446 4.81564 -1.87903 0.07
-7.17854 4.79866 -1.87803 0.04
-7.19867 4.76975 -1.87905 0.07
-7.18886 4.72671 -1.87404 0.04
-7.19003 4.68971 -1.87105 0.08
-7.20417 4.65777 -1.87106 0.16
-7.20634 4.62078 -1.86907 0.16
-7.20451 4.58277 -1.86507 0.16
-7.21765 4.55083 -1.86508 0.04
-7.19977 4.52375 -1.86007 0.16
-7.21591 4.49382 -1.86008 0.18
-7.22107 4.45785 -1.85809 0.18
-7.19529 4.40973 -1.85007 0.19
-7.18148 4.36667 -1.84507 0.24
-7.20261 4.33876 -1.84608 0.34
-7.24868 4.32097 -1.85312 0.31
-7.26074 4.30802 -1.85413 0.31
-7.2659 4.27304 -1.85214 0.28
-7.25209 4.22998 -1.84713 0.27
-7.22531 4.18186 -1.83912 0.27
-7.26739 4.16305 -1.84515 0.27
-7.30748 4.14323 -1.85019 0.14
-7.29467 4.10117 -1.84518 0.21
-7.33068 4.09733 -1.85121 0.11
-7.2999 4.04819 -1.84219 0.18
-7.32502 4.0213 -1.84521 0.05
-7.33716 3.99036 -1.84522 0.18
-7.3503 3.95841 -1.84523 0.05
-7.33849 3.91736 -1.84023 0.17
-7.37458 3.89552 -1.84526 0.05
-7.37974 3.86054 -1.84327 0.17
-7.39878 3.84963 -1.84628 0.05
-7.39396 3.81161 -1.84228 0.16
-7.41508 3.7837 -1.8443 0.05
-7.42722 3.75175 -1.84431 0.16
-7.45134 3.72486 -1.84733 0.05
-7.43054 3.68077 -1.84032 0.16
-7.46564 3.65792 -1.84535 0.05
-7.4747 3.64296 -1.84636 0.15
-7.48285 3.61 -1.84537 0.18
-7.50697 3.58211 -1.84839 0.18
-7.5271 3.5532 -1.84941 0.17
-7.52926 3.51821 -1.84841 0.16
-7.53441 3.48423 -1.84642 0.17
-7.55154 3.4543 -1.84844 0.17
-7.54471 3.41627 -1.84443 0.17
-7.55278 3.40031 -1.84544 0.17
-7.57191 3.37139 -1.84646 0.16
-7.57207 3.33539 -1.84446 0.16
-7.59519 3.3075 -1.84748 0.17
-7.61333 3.27758 -1.8485 0.17
-7.6065 3.23955 -1.8455 0.17
-7.60566 3.20354 -1.8435 0.16
-7.62371 3.19162 -1.84552 0.16
-7.61289 3.15257 -1.84151 0.16
-7.63002 3.12265 -1.84353 0.17
-7.64216 3.0907 -1.84354 0.17
-7.64431 3.05671 -1.84254 0.17
-7.64947 3.02273 -1.84155 0.04
-7.65761 2.98977 -1.84156 0.16
-7.66168 2.97379 -1.84156 0.18
-7.66184 2.93779 -1.83957 0.04
-7.65202 2.89974 -1.83556 0.16
-7.67813 2.87286 -1.83858 0.05
-7.6753 2.83685 -1.83659 0.16
-7.69443 2.80693 -1.8386 0.05
-7.6816 2.76787 -1.8346 0.16
-7.71572 2.74203 -1.83963 0.05
-7.69882 2.71995 -1.83561 0.17
-7.70896 2.688 -1.83562 0.05
-7.7171 2.65603 -1.83563 0.16
-7.72924 2.62408 -1.83665 0.05
-7.71342 2.58501 -1.83164 0.16
-7.74953 2.55917 -1.83767 0.05
-7.7347 2.52111 -1.83266 0.16
-7.74677 2.50616 -1.83467 0.05
-7.73494 2.46911 -1.83066 0.16
-7.76805 2.44226 -1.83569 0.05
-7.75822 2.40521 -1.83269 0.16
-7.78434 2.37633 -1.83571 0.18
-7.79249 2.34336 -1.83572 0.18
-7.80463 2.31242 -1.83673 0.09
-7.80279 2.27641 -1.83473 0.09
-7.80586 2.26042 -1.83474 0.09
-7.80801 2.22643 -1.83374 0.09
-7.81616 2.19347 -1.83475 0.09
-7.8273 2.16152 -1.83476 0.09
-7.82646 2.12651 -1.83376 0.08
-7.8326 2.09354 -1.83377 0.08
-7.83775 2.06056 -1.83378 0.08
-7.83084 2.04153 -1.83177 0.04
-7.84098 2.00958 -1.83278 0.08
-7.85112 1.97662 -1.83279 0.08
-7.84928 1.94261 -1.8318 0.08
-7.85542 1.90964 -1.8318 0.08
-7.86357 1.87667 -1.83181 0.08
-7.87171 1.84371 -1.83282 0.08
-7.86887 1.8087 -1.83082 0.08
-7.87594 1.79273 -1.83183 0.16
-7.87609 1.75873 -1.83083 0.04
-7.88324 1.72576 -1.83084 0.08
-7.88239 1.69176 -1.82984 0.08
-7.88854 1.65878 -1.82985 0.04
-7.89868 1.62583 -1.83086 0.07
-7.89584 1.59181 -1.82986 0.15
-7.90291 1.57585 -1.82987 0.04
-7.89606 1.54081 -1.82786 0.07
-7.89522 1.50681 -1.82687 0.04
-7.90536 1.47386 -1.82788 0.08
-7.83549 1.44754 -1.81482 0.08
-7.84364 1.41458 -1.81483 0.08
-7.84878 1.3816 -1.81484 0.08
-7.85493 1.34863 -1.81585 0.08
-7.855 1.33163 -1.81485 0.08
-7.85915 1.29865 -1.81485 0.08
-7.84931 1.2636 -1.81285 0.08
-7.85945 1.23165 -1.81386 0.08
-7.8566 1.19763 -1.81286 0.08
-7.87074 1.1657 -1.81487 0.08
-7.86789 1.13168 -1.81387 0.08
-7.86804 1.09868 -1.81288 0.04
-7.87312 1.08171 -1.81388 0.08
-7.87726 1.04873 -1.81389 0.04
-7.88041 1.01574 -1.81389 0.07
-7.89056 0.982784 -1.8149 0.04
-7.8877 0.949771 -1.8139 0.07
-7.89285 0.915793 -1.81391 0.04
-7.888 0.882771 -1.81291 0
-7.89707 0.866812 -1.81392 0
-7.90422 0.833843 -1.81493 0
-7.90837 0.799861 -1.81493 0
-7.91251 0.766879 -1.81594 0
-7.92066 0.733915 -1.81695 0
-7.90781 0.699858 -1.81394 0
-7.94295 0.669014 -1.81997 0
-7.94202 0.65201 -1.81997 0
-7.91818 0.616903 -1.81495 0
-7.91633 0.582894 -1.81395 0
-7.91848 0.549904 -1.81396 0
-7.91763 0.516899 -1.81396 0.03
-7.91178 0.482873 -1.81296 0.03
-7.91093 0.448869 -1.81196 0.03
-7.89508 0.414798 -1.80895 0.03
-7.89716 0.398807 -1.80895 0.03
-7.89531 0.364798 -1.80895 0.03
-7.89245 0.331785 -1.80795 0.03
-7.9006 0.298821 -1.80896 0.07
-7.88775 0.264764 -1.80696 0.04
-7.8789 0.231724 -1.80495 0.07
-7.87005 0.198684 -1.80295 0.04
-7.88212 0.181738 -1.80496 0.07
-7.88627 0.148756 -1.80596 0.15
-7.87642 0.115712 -1.80396 0.16
-7.86957 0.0816807 -1.80295 0.16
-7.86972 0.048681 -1.80296 0.16
-7.86386 0.0156546 -1.80195 0.17
-7.86801 -0.0173273 -1.80196 0.16
-7.86116 -0.0503582 -1.80096 0.17
-7.86523 -0.0673401 -1.80196 0.18
-7.87338 -0.100304 -1.80297 0.17
-7.87253 -0.133308 -1.80297 0.17
-7.87268 -0.167308 -1.80298 0.17
-7.86182 -0.200357 -1.80197 0.18
-7.86297 -0.233352 -1.80197 0.17
-7.84812 -0.266418 -1.79896 0.17
-7.84819 -0.282418 -1.79896 0.16
-7.84734 -0.315422 -1.79897 0.17
-7.86149 -0.34936 -1.80198 0.17
-7.84663 -0.382426 -1.79997 0.16
-7.84978 -0.415412 -1.80098 0.17
-7.85793 -0.448376 -1.80199 0.17
-7.83508 -0.481479 -1.79797 0.16
-7.82815 -0.49751 -1.79697 0.04
-7.8423 -0.531447 -1.79998 0.08
-7.82944 -0.563504 -1.79797 0.04
-7.82959 -0.596504 -1.79797 0.07
-7.83474 -0.630481 -1.79998 0.04
-7.82888 -0.663508 -1.79898 0.07
-7.82903 -0.696507 -1.79898 0.04
-7.8261 -0.712521 -1.79898 0.04
-7.81525 -0.745569 -1.79797 0.04
-7.8324 -0.779493 -1.80099 0.04
-7.82654 -0.81252 -1.80099 0.04
-7.81969 -0.84555 -1.79998 0.03
-7.83084 -0.879501 -1.802 0.03
-7.83199 -0.912496 -1.803 0.03
-7.80513 -0.943616 -1.79898 0.03
-7.8102 -0.960594 -1.79999 0.03
-7.79535 -0.99266 -1.79798 0.03
-7.79249 -1.02567 -1.79798 0.03
-7.80064 -1.05964 -1.79999 0.03
-7.78178 -1.09072 -1.79697 0.04
-7.77393 -1.12376 -1.79597 0.03
-7.77008 -1.15677 -1.79597 0.04
-7.76115 -1.17181 -1.79496 0.07
-7.74929 -1.20387 -1.79295 0.04
-7.74744 -1.23688 -1.79396 0.04
-7.75759 -1.27183 -1.79597 0.07
-7.76274 -1.30581 -1.79797 0.15
-7.75088 -1.33686 -1.79697 0.16
-7.75203 -1.37086 -1.79797 0.16
-7.76411 -1.3888 -1.79998 0.17
-7.75525 -1.42184 -1.79898 0.04
-7.74139 -1.4529 -1.79797 0.16
-7.74654 -1.48688 -1.79897 0.05
-7.73369 -1.51894 -1.79797 0.16
-7.75785 -1.55583 -1.80299 0.05
-7.73999 -1.58691 -1.80098 0.16
-7.74814 -1.62188 -1.80299 0.05
-7.7262 -1.63497 -1.79997 0.16
-7.75837 -1.67383 -1.807 0.19
-7.76052 -1.70782 -1.808 0.18
-7.75266 -1.73986 -1.808 0.04
-7.80784 -1.78261 -1.81905 0.16
-7.823 -1.81954 -1.82306 0.05
-7.79613 -1.84866 -1.81904 0.16
-7.81622 -1.86957 -1.82306 0.05
-7.77635 -1.89575 -1.81703 0.18
-7.7775 -1.93075 -1.81803 0.19
-7.61854 -1.93546 -1.7899 0.16
-7.45658 -1.93818 -1.75977 0.16
-7.29761 -1.94089 -1.73164 0.17
-7.16366 -1.94748 -1.70753 0.18
-7.03563 -1.93805 -1.68343 0.1
-7.00575 -1.96419 -1.67941 0.08
-7.00589 -1.99519 -1.68041 0.16
-6.98802 -2.02327 -1.6774 0.16
-6.98516 -2.05528 -1.6784 0.16
-7.06136 -2.10294 -1.69446 0.04
-7.08352 -2.13984 -1.69948 0.18
-7.1327 -2.18262 -1.71053 0.11
-7.09674 -2.19078 -1.7045 0.14
-7.10289 -2.22476 -1.70651 0.25
-7.059 -2.24695 -1.69947 0.1
-7.08716 -2.28583 -1.7065 0.21
-7.12134 -2.32668 -1.71453 0.21
-7.1435 -2.36358 -1.71955 0.18
-7.1026 -2.38676 -1.71352 0.23
-7.10268 -2.40376 -1.71452 0.04
-7.16788 -2.45147 -1.72858 0
-7.2401 -2.50315 -1.74364 0
-7.3984 -2.57644 -1.77477 0
-7.36552 -2.60159 -1.77075 0
-7.39569 -2.64245 -1.77778 0
-7.39284 -2.67647 -1.77878 0
-7.39191 -2.69247 -1.77978 0
-7.38406 -2.72451 -1.77977 0
-7.36619 -2.75359 -1.77776 0
-7.32429 -2.77677 -1.77173 0
-7.31042 -2.80584 -1.77072 0
-7.27854 -2.83098 -1.76569 0
-7.26968 -2.86302 -1.76569 0
-7.25281 -2.89209 -1.76468 0
-7.25789 -2.91007 -1.76668 0
-7.19196 -2.92436 -1.75563 0
-7.13604 -2.94161 -1.74659 0
-7.04608 -2.94801 -1.73051 0
-6.96113 -2.95639 -1.71645 0
-6.82211 -2.94701 -1.69133 0
-6.63402 -2.92085 -1.65618 0
-6.50593 -2.89742 -1.63207 0
-6.41997 -2.90181 -1.617 0
-7.3224 -3.25578 -1.79676 0
-7.27449 -3.275 -1.78973 0
-7.29067 -3.31493 -1.79474 0
-7.29282 -3.35092 -1.79675 0
-7.27695 -3.37999 -1.79574 0
-7.27503 -3.397 -1.79674 0
-7.23413 -3.41818 -1.7907 0
-7.22227 -3.44923 -1.7907 0.03
-7.21441 -3.48127 -1.79069 0.03
-7.20755 -3.5133 -1.79169 0.03
-7.21672 -3.55226 -1.7957 0.07
-7.19284 -3.57836 -1.79368 0.04
-7.20693 -3.6013 -1.7977 0.07
-7.18706 -3.62939 -1.79568 0.15
-7.1752 -3.66044 -1.79567 0.16
-7.17435 -3.69545 -1.79768 0.18
-7.15748 -3.72452 -1.79666 0.04
-7.15363 -3.75754 -1.79766 0.16
-7.12875 -3.78365 -1.79565 0.19
-7.11881 -3.79769 -1.79464 0.17
-7.14901 -3.84456 -1.80267 0.17
-7.14016 -3.8776 -1.80366 0.09
-7.07521 -3.88689 -1.79361 0.09
-7.0944 -3.9308 -1.79963 0.09
-7.05248 -3.94899 -1.7936 0.11
-6.93445 -3.93752 -1.7725 0.14
-7.0407 -3.99804 -1.79459 0.08
-7.01581 -4.02315 -1.79257 0.16
-7.01397 -4.05816 -1.79457 0.04
-7.01412 -4.09416 -1.79758 0.08
-6.91211 -4.08762 -1.77949 0.04
-6.89223 -4.11471 -1.77748 0.07
-6.98054 -4.18831 -1.79856 0.15
-6.94456 -4.19047 -1.79253 0.04
-6.92067 -4.21658 -1.79051 0.07
-6.88376 -4.23574 -1.78548 0.04
-6.84886 -4.2569 -1.78145 0.03
-6.82497 -4.28201 -1.77844 0.07
-6.78105 -4.2982 -1.7724 0.04
-6.71408 -4.3035 -1.76135 0.04
-6.65513 -4.31276 -1.7523 0.03
-6.63617 -4.32085 -1.75028 0.03
-6.56519 -4.32417 -1.73823 0.07
-6.50523 -4.33143 -1.72918 0.04
-6.48334 -4.35653 -1.72716 0.04
-6.47648 -4.38856 -1.72816 0.03
-6.45359 -4.41266 -1.72714 0.07
-6.40765 -4.42587 -1.72011 0.08
-6.34561 -4.41414 -1.70905 0.08
-6.27863 -4.41644 -1.698 0.08
-6.21265 -4.41874 -1.68695 0.09
-6.14165 -4.41805 -1.67489 0.09
-6.06665 -4.41539 -1.66283 0.09
-5.97862 -4.40578 -1.64675 0.09
-5.88758 -4.39419 -1.63068 0.08
-5.82652 -4.37946 -1.61963 0
-5.72345 -4.35992 -1.60054 0
-5.67349 -4.36814 -1.5935 0
-5.61251 -4.36941 -1.58345 0
-6.3424 -4.82316 -1.74308 0.04
-6.29446 -4.83437 -1.73604 0.08
-6.25754 -4.85154 -1.73102 0.15
-6.24158 -4.86061 -1.729 0.06
-6.17759 -4.86189 -1.71895 0.17
-6.16071 -4.88897 -1.71894 0.05
-6.10975 -4.8972 -1.7109 0.17
-6.09187 -4.92328 -1.71089 0.19
-6.0339 -4.92753 -1.70184 0.09
-5.96188 -4.92286 -1.68978 0.18
-5.95294 -4.9349 -1.68877 0.1
-5.89797 -4.94014 -1.68073 0.18
-5.88008 -4.96622 -1.68072 0.1
-5.85819 -4.98932 -1.6787 0.16
-5.83027 -5.00844 -1.67668 0.22
-5.7753 -5.01269 -1.66763 0.16
-5.76443 -5.04174 -1.66863 0.27
-5.70836 -5.02599 -1.65858 0.25
-5.71254 -5.06497 -1.66259 0.15
-5.66758 -5.07417 -1.65655 0.29
-5.60157 -5.06946 -1.6455 0.2
-5.5937 -5.1005 -1.64749 0.21
-5.52569 -5.0948 -1.63644 0.09
-5.49676 -5.11193 -1.63341 0.18
-5.5169 -5.14284 -1.63943 0.15
-5.51204 -5.17586 -1.64243 0.29
-5.45405 -5.17512 -1.63238 0.18
-5.44418 -5.20516 -1.63438 0.25
-5.44133 -5.23918 -1.63738 0.16
-5.47658 -5.29802 -1.64841 0.26
-5.43763 -5.30919 -1.64338 0.25
-5.40169 -5.32235 -1.63935 0.23
-5.43587 -5.3632 -1.64838 0.13
-5.41698 -5.38729 -1.64837 0.14
-5.4412 -5.44018 -1.65739 0.25
-5.42632 -5.46624 -1.65838 0.15
-5.45757 -5.5251 -1.66841 0.27
-5.44871 -5.55614 -1.67041 0.16
-5.45991 -5.60209 -1.67742 0.27
-5.44795 -5.61215 -1.67641 0.23
-5.47118 -5.66604 -1.68544 0.12
-5.47235 -5.70504 -1.69044 0.18
-5.40632 -5.69633 -1.67939 0.21
-5.33328 -5.68366 -1.66633 0.23
-5.34748 -5.7316 -1.67434 0.18
-5.40282 -5.80935 -1.69039 0.26
-5.32074 -5.78871 -1.67632 0.19
-5.29875 -5.79181 -1.67331 0.21
-5.30594 -5.83578 -1.67931 0.09
-5.25295 -5.83502 -1.67127 0.08
-5.20196 -5.83624 -1.66323 0.15
-5.14394 -5.8315 -1.65418 0.16
-5.11903 -5.85161 -1.65216 0.17
-5.11318 -5.88564 -1.65516 0.17
-5.10023 -5.8957 -1.65515 0.17
-5.06829 -5.90884 -1.65113 0.16
-5.02131 -5.91205 -1.64509 0.17
-4.99037 -5.92619 -1.64206 0.17
-4.93537 -5.92343 -1.63402 0.17
-4.89038 -5.92663 -1.62698 0.17
-4.84239 -5.92685 -1.61994 0.17
-4.79632 -5.91005 -1.6119 0.17
-4.75134 -5.91225 -1.60587 0.17
-4.70234 -5.91147 -1.59783 0.18
-4.65535 -5.91268 -1.59179 0.17
-4.60936 -5.91388 -1.58475 0.18
-4.56838 -5.91807 -1.57972 0.18
-4.50533 -5.90435 -1.56867 0.18
-4.45725 -5.88456 -1.55963 0.04
-4.40724 -5.88079 -1.55158 0.16
-4.35421 -5.87402 -1.54354 0.18
-4.31323 -5.8772 -1.53851 0.09
-4.26423 -5.87442 -1.53047 0.09
-4.23829 -5.88954 -1.52945 0
-4.17222 -5.87083 -1.51739 0
-4.14922 -5.86993 -1.51437 0
-4.6783 -6.36158 -1.64784 0
-4.86616 -6.56474 -1.69901 0.03
-4.83222 -6.57689 -1.69598 0.17
-4.77619 -6.56914 -1.68694 0.19
-4.75429 -6.59124 -1.68692 0.26
-4.74242 -6.62229 -1.68891 0.22
-4.70045 -6.62748 -1.68388 0.21
-4.68448 -6.63455 -1.68187 0.21
-4.68567 -6.67654 -1.68787 0.32
-4.67079 -6.70561 -1.68886 0.25
-4.61476 -6.69686 -1.67982 0.16
-4.61093 -6.73588 -1.68482 0.29
-4.57899 -6.74902 -1.68179 0.24
-4.56512 -6.77908 -1.68378 0.27
-4.55919 -6.79411 -1.68478 0.27
-4.57644 -6.85303 -1.6948 0.23
-4.53447 -6.85722 -1.68976 0.23
-4.50855 -6.87533 -1.68874 0.21
-4.46757 -6.87952 -1.68371 0.12
-4.43864 -6.89465 -1.68169 0.17
-4.42979 -6.92968 -1.68468 0.05
-4.38771 -6.91087 -1.67665 0.17
-4.38288 -6.94989 -1.68165 0.05
-4.33387 -6.94511 -1.67461 0.17
-4.32803 -6.98314 -1.6786 0.11
-4.29508 -6.99328 -1.67558 0.2
-4.25611 -6.99846 -1.67055 0.19
-4.23019 -7.01657 -1.66953 0.15
-4.24745 -7.0785 -1.68055 0.21
-4.22445 -7.0766 -1.67753 0.16
-4.19652 -7.09272 -1.67551 0.27
-4.20877 -7.14967 -1.68452 0.23
-4.19792 -7.18472 -1.68751 0.1
-4.15894 -7.18889 -1.68348 0.09
-4.08681 -7.15821 -1.67042 0.18
-4.10208 -7.21914 -1.68044 0.2
-4.06501 -7.20231 -1.67341 0.19
-4.03306 -7.21345 -1.67038 0.13
-4.00312 -7.22759 -1.66936 0.2
-4.00031 -7.2706 -1.67436 0.11
-4.02663 -7.34448 -1.68739 0.09
-3.95248 -7.30881 -1.67332 0.16
-3.88939 -7.28609 -1.66227 0.12
-3.91762 -7.34097 -1.6733 0.17
-3.87763 -7.34214 -1.66926 0.21
-3.82458 -7.32938 -1.66022 0.04
-3.75947 -7.30267 -1.64916 0.14
-3.69737 -7.27895 -1.63811 0.19
-3.66843 -7.29108 -1.63609 0.17
-3.6214 -7.28429 -1.62905 0.16
-3.59136 -7.27242 -1.62402 0.04
-3.58352 -7.30945 -1.62802 0.04
-3.56663 -7.33653 -1.63001 0.03
-3.5387 -7.35065 -1.62899 0.07
-3.49568 -7.34585 -1.62295 0.04
-3.46473 -7.35598 -1.62093 0.08
-3.43378 -7.36712 -1.6179 0.08
-3.38774 -7.35833 -1.61187 0.08
-3.36976 -7.36041 -1.60985 0.08
-3.32975 -7.35858 -1.60482 0.08
-3.28975 -7.35776 -1.59979 0.16
-3.24873 -7.35295 -1.59475 0.16
-3.21376 -7.3581 -1.59072 0.16
-3.17275 -7.35428 -1.58569 0.16
-3.14179 -7.36342 -1.58366 0.16
-3.11876 -7.35652 -1.57965 0.16
-3.07473 -7.34872 -1.57361 0.17
-3.03774 -7.34988 -1.56958 0.18
-3.00175 -7.35104 -1.56555 0.18
-2.96173 -7.34722 -1.56052 0.17
-2.92675 -7.34938 -1.55649 0.18
-2.89377 -7.35453 -1.55346 0.18
-2.85867 -7.33168 -1.54643 0.04
-2.82268 -7.33184 -1.5424 0.16
-2.78869 -7.33499 -1.53937 0.05
-2.74465 -7.32319 -1.53234 0.16
-2.70463 -7.31837 -1.5273 0.05
-2.66561 -7.31354 -1.52227 0.16
-2.6286 -7.31071 -1.51824 0.05
-2.60557 -7.30381 -1.51422 0.17
-2.5746 -7.30895 -1.5122 0.18
-2.53055 -7.29714 -1.50516 0.18
-2.49857 -7.30029 -1.50214 0.04
-2.48067 -7.32337 -1.50412 0
-2.42857 -7.2996 -1.49508 0
-2.40262 -7.31071 -1.49306 0
-2.37767 -7.32282 -1.49304 0
-2.39086 -7.36676 -1.50105 0
-2.39611 -7.42474 -1.51006 0
-2.70425 -7.92437 -1.61835 0
-2.74775 -8.04217 -1.6414 0.05
-2.70874 -8.03735 -1.63636 0
-2.67677 -8.04449 -1.63434 0.12
-2.64178 -8.04665 -1.63131 0.2
-2.64492 -8.07963 -1.63631 0.22
-2.60189 -8.07082 -1.63028 0.27
-2.58099 -8.09392 -1.63226 0.32
-2.54398 -8.09208 -1.62823 0.28
-2.50396 -8.08526 -1.6232 0.27
-2.46092 -8.07545 -1.61716 0.16
-2.42995 -8.08259 -1.61514 0.31
-2.40088 -8.06472 -1.60911 0.25
-2.37897 -8.08582 -1.6101 0.24
-2.32182 -8.05107 -1.60005 0.21
-2.29086 -8.05921 -1.59802 0.28
-2.25585 -8.05736 -1.59399 0.21
-2.1977 -8.01962 -1.58194 0.18
-2.1919 -8.06665 -1.58894 0.29
-2.16483 -8.05077 -1.58392 0.24
-2.14092 -8.06988 -1.5849 0.2
-2.11296 -8.08 -1.58388 0.25
-2.07393 -8.07117 -1.57885 0.21
-2.04094 -8.07432 -1.57582 0.12
-2.00191 -8.06549 -1.57079 0.2
-1.97294 -8.07262 -1.56977 0.11
-1.95494 -8.0717 -1.56775 0.17
-1.91993 -8.06986 -1.56372 0.23
-1.88896 -8.075 -1.5617 0.19
-1.85092 -8.06717 -1.55767 0.22
-1.81591 -8.06432 -1.55364 0.18
-1.78392 -8.06647 -1.55161 0.23
-1.74891 -8.06162 -1.54758 0.18
-1.73191 -8.0617 -1.54557 0.24
-1.69488 -8.05486 -1.54154 0.17
-1.66793 -8.06498 -1.54052 0.23
-1.62989 -8.05515 -1.53548 0.18
-1.60293 -8.06527 -1.53446 0.23
-1.56792 -8.06143 -1.53143 0.19
-1.53491 -8.06057 -1.52841 0.24
-1.5009 -8.05572 -1.52438 0.18
-1.48389 -8.0538 -1.52236 0.25
-1.44686 -8.04597 -1.51833 0.19
-1.4088 -8.03314 -1.5123 0.25
-1.37277 -8.0243 -1.50827 0.23
-1.33472 -8.01247 -1.50324 0.18
-1.3118 -8.03057 -1.50422 0.27
-1.27777 -8.02372 -1.50019 0.23
-1.25875 -8.0178 -1.49818 0.2
-1.22877 -8.02194 -1.49615 0.28
-1.19373 -8.01209 -1.49112 0.25
-1.16072 -8.00924 -1.4881 0.19
-1.13577 -8.02235 -1.48808 0.26
-1.0967 -8.00452 -1.48204 0.25
-1.06771 -8.00765 -1.48002 0.19
-1.05777 -8.0207 -1.48201 0.28
-1.01768 -7.99988 -1.47498 0.23
-0.98769 -8.00101 -1.47296 0.19
-0.963747 -8.01412 -1.47394 0.28
-0.930733 -8.01026 -1.46991 0.25
-0.900735 -8.0104 -1.46789 0.19
-0.875784 -8.02151 -1.46787 0.27
-0.852708 -8.00361 -1.46285 0.25
-0.82271 -8.00374 -1.46082 0.26
-0.788678 -7.9959 -1.45679 0.25
-0.76474 -8.01 -1.45777 0.19
-0.738772 -8.01712 -1.45675 0.28
-0.70271 -8.00228 -1.45172 0.23
-0.677759 -8.01339 -1.4517 0.21
-0.655842 -8.03249 -1.45369 0.25
-0.640843 -8.03255 -1.45267 0.21
-0.61993 -8.05265 -1.45466 0.12
-0.584881 -8.0408 -1.44963 0.2
-0.568012 -8.07088 -1.45362 0.11
-0.532953 -8.05703 -1.44959 0.2
-0.510023 -8.07314 -1.45057 0.17
-0.496193 -8.1122 -1.45556 0.26
-0.473099 -8.0903 -1.45054 0.24
-0.448157 -8.10341 -1.45152 0.24
-0.445455 -8.17242 -1.46253 0.33
-0.431623 -8.21148 -1.46852 0.29
-0.40668 -8.22459 -1.4695 0.25
-0.366558 -8.19577 -1.46146 0.29
-0.336542 -8.19191 -1.45944 0.3
-0.339758 -8.24189 -1.46745 0.29
-0.322909 -8.27697 -1.47343 0.28
-0.29492 -8.27909 -1.47141 0.27
-0.280093 -8.31916 -1.4774 0.32
-0.251103 -8.32129 -1.47638 0.27
-0.220079 -8.31542 -1.47335 0.35
-0.197162 -8.33453 -1.47534 0.32
-0.170013 -8.29965 -1.46731 0.32
-0.14507 -8.31276 -1.46829 0.33
-0.132269 -8.35881 -1.47528 0.32
-0.119485 -8.40887 -1.48328 0.34
-0.0884567 -8.40201 -1.48025 0.32
-0.060488 -8.40913 -1.48023 0.31
-0.0213482 -8.37631 -1.4722 0.31
0.00662836 -8.38143 -1.47117 0.31
0.0074437 -8.42444 -1.47918 0.31
0.042523 -8.40559 -1.47315 0.34
0.07153 -8.40372 -1.47112 0.28
0.0954513 -8.42183 -1.4731 0.35
0.125472 -8.41696 -1.47108 0.3
0.14838 -8.43806 -1.47306 0.31
0.184481 -8.41422 -1.46703 0.32
0.201515 -8.4063 -1.46502 0.33
0.226462 -8.41841 -1.466 0.35
0.25546 -8.41854 -1.46397 0.37
0.284476 -8.41467 -1.46195 0.26
0.330745 -8.35187 -1.44891 0.38
0.347563 -8.39395 -1.4549 0.26
0.380631 -8.3781 -1.45087 0.32
0.382445 -8.4211 -1.45787 0.33
0.417543 -8.39826 -1.45284 0.34
0.432323 -8.44933 -1.46083 0.33
0.460317 -8.45045 -1.45981 0.35
0.489328 -8.44758 -1.45778 0.32
0.513245 -8.46669 -1.45977 0.32
0.540235 -8.46881 -1.45874 0.35
0.568471 -8.41393 -1.44772 0.26
0.599517 -8.40307 -1.44469 0.29
0.631589 -8.38621 -1.44066 0.4
0.647368 -8.43728 -1.44865 0.3
0.673324 -8.4474 -1.44963 0.35
0.696246 -8.4655 -1.45162 0.32
0.71812 -8.4946 -1.4556 0.31
0.74511 -8.49672 -1.45458 0.34
0.760122 -8.49378 -1.45357 0.32
0.794242 -8.46594 -1.44754 0.35
0.825292 -8.45407 -1.44451 0.32
0.849218 -8.47118 -1.44649 0.36
0.876208 -8.4733 -1.44547 0.36
0.903181 -8.47942 -1.44545 0.33
0.936291 -8.45357 -1.43942 0.32
0.953342 -8.44164 -1.4364 0.37
0.978294 -8.45275 -1.43739 0.33
1.01857 -8.38793 -1.42435 0.31
1.02103 -8.51494 -1.44736 0.33
1.04903 -8.51407 -1.44633 0.37
1.07601 -8.51919 -1.44631 0.3
1.1071 -8.49733 -1.44128 0.29
1.12519 -8.47741 -1.43727 0.32
1.15728 -8.45455 -1.43224 0.29
1.18633 -8.44368 -1.42921 0.36
1.20821 -8.47178 -1.4332 0.32
1.23417 -8.48089 -1.43418 0.36
1.2591 -8.497 -1.43616 0.33
1.28097 -8.5281 -1.44114 0.32
1.29702 -8.51517 -1.43813 0.31
1.33015 -8.48432 -1.4321 0.29
1.36022 -8.46745 -1.42807 0.28
1.38414 -8.48656 -1.43006 0.36
1.41113 -8.48868 -1.43003 0.3
1.44225 -8.46182 -1.42401 0.35
1.46718 -8.47793 -1.42599 0.29
1.48222 -8.46799 -1.42398 0.4
1.50508 -8.5011 -1.42996 0.26
1.53 -8.51821 -1.43194 0.35
1.55805 -8.50833 -1.42992 0.3
1.58401 -8.51745 -1.4309 0.36
1.61204 -8.50957 -1.42887 0.34
1.63695 -8.53168 -1.43185 0.35
1.652 -8.51775 -1.42884 0.34
1.68315 -8.48389 -1.42181 0.31
1.71116 -8.48201 -1.42079 0.33
1.74232 -8.44515 -1.41376 0.38
1.76414 -8.48525 -1.42075 0.31
1.79009 -8.49836 -1.42273 0.37
1.81708 -8.49948 -1.4217 0.3
1.8441 -8.4956 -1.42068 0.32
1.85708 -8.49966 -1.42167 0.35
1.88408 -8.49978 -1.42065 0.36
1.91211 -8.49291 -1.41963 0.34
1.93808 -8.50102 -1.42061 0.32
1.96614 -8.48515 -1.41658 0.32
1.99103 -8.51126 -1.42156 0.39
2.01805 -8.50738 -1.42054 0.36
2.03313 -8.48744 -1.41653 0.26
2.05907 -8.50256 -1.41851 0.35
2.08504 -8.50867 -1.41949 0.33
2.11416 -8.4808 -1.41346 0.27
2.14008 -8.49892 -1.41644 0.4
2.16714 -8.48504 -1.41342 0.33
2.19308 -8.50015 -1.4164 0.27
2.206 -8.51821 -1.41939 0.37
2.23627 -8.45535 -1.40736 0.33
2.26332 -8.44447 -1.40534 0.31
2.29033 -8.44059 -1.40431 0.31
2.31415 -8.48269 -1.4123 0.34
2.34119 -8.47381 -1.41027 0.3
2.36813 -8.48893 -1.41225 0.32
2.38223 -8.466 -1.40824 0.37
2.40815 -8.48411 -1.41122 0.28
2.43409 -8.49723 -1.4132 0.36
2.46105 -8.50735 -1.41518 0.35
2.48695 -8.53046 -1.41916 0.3
2.51405 -8.50658 -1.41514 0.28
2.54109 -8.4977 -1.41311 0.36
2.55414 -8.48576 -1.4111 0.32
2.58113 -8.48888 -1.41108 0.32
2.60809 -8.497 -1.41306 0.32
2.63411 -8.49312 -1.41204 0.37
2.66116 -8.48124 -1.41001 0.3
2.6882 -8.47336 -1.40799 0.29
2.7143 -8.44947 -1.40397 0.42
2.72746 -8.41253 -1.39695 0.26
2.75433 -8.44165 -1.40293 0.35
2.78134 -8.43977 -1.40191 0.33
2.80733 -8.44288 -1.40289 0.25
2.83422 -8.468 -1.40787 0.41
2.86035 -8.43812 -1.40185 0.32
2.88725 -8.46124 -1.40683 0.33
2.91345 -8.41536 -1.3978 0.32
2.92732 -8.44442 -1.40379 0.31
2.95418 -8.47754 -1.40977 0.36
2.98119 -8.47466 -1.40875 0.27
3.0063 -8.44977 -1.40473 0.37
3.0324 -8.42589 -1.40071 0.32
3.06028 -8.45401 -1.40569 0.32
3.08544 -8.41712 -1.39966 0.32
3.09845 -8.41518 -1.39865 0.32
3.12537 -8.4333 -1.40263 0.32
3.15141 -8.42541 -1.40161 0.37
3.17838 -8.43253 -1.40259 0.31
3.2054 -8.42665 -1.40257 0.32
3.22957 -8.38776 -1.39554 0.31
3.25651 -8.40188 -1.39852 0.41
3.27143 -8.42195 -1.40251 0.31
3.29839 -8.43007 -1.40349 0.29
3.32539 -8.43019 -1.40447 0.32
3.35139 -8.4303 -1.40445 0.29
3.37744 -8.41842 -1.40242 0.29
3.40442 -8.42354 -1.4044 0.29
3.4295 -8.40565 -1.40138 0.29
3.44058 -8.3857 -1.39737 0.27
3.46853 -8.39882 -1.40035 0.33
3.49742 -8.42395 -1.40533 0.29
3.52536 -8.43908 -1.40831 0.34
3.55333 -8.4462 -1.41028 0.28
3.5784 -8.42931 -1.40826 0.34
3.60251 -8.40342 -1.40324 0.33
3.61744 -8.41949 -1.40723 0.3
3.64349 -8.4086 -1.40521 0.33
3.66951 -8.40372 -1.40519 0.32
3.69843 -8.42384 -1.40916 0.34
3.72833 -8.44598 -1.41414 0.34
3.74855 -8.39607 -1.40512 0.27
3.77845 -8.4182 -1.4101 0.33
3.80255 -8.39531 -1.40608 0.26
3.81751 -8.40637 -1.40906 0.37
3.84351 -8.40549 -1.40904 0.29
3.86955 -8.3956 -1.40802 0.37
3.89461 -8.38372 -1.407 0.28
3.92256 -8.39384 -1.40898 0.34
3.95054 -8.39996 -1.41096 0.39
3.97267 -8.36906 -1.40594 0.35
3.98763 -8.37813 -1.40792 0.37
4.01853 -8.40127 -1.4129 0.31
4.04553 -8.40339 -1.41388 0.36
4.06961 -8.38349 -1.41086 0.31
4.09758 -8.39062 -1.41383 0.31
4.12653 -8.40175 -1.41581 0.33
4.15551 -8.40887 -1.41879 0.36
4.16754 -8.40193 -1.41778 0.29
4.19162 -8.38204 -1.41476 0.3
4.2157 -8.36414 -1.41174 0.36
4.24466 -8.37427 -1.41471 0.29
4.27166 -8.37339 -1.41569 0.31
4.29377 -8.34749 -1.41167 0.29
4.3247 -8.36563 -1.41565 0.38
4.33869 -8.36669 -1.41664 0.3
4.36667 -8.37281 -1.41861 0.34
4.3927 -8.36593 -1.41859 0.29
4.41187 -8.32601 -1.41157 0.31
4.4291 -8.27409 -1.40356 0.37
4.45707 -8.28021 -1.40553 0.3
4.48996 -8.30536 -1.41151 0.35
4.50689 -8.32344 -1.4155 0.3
4.53488 -8.32556 -1.41647 0.32
4.55894 -8.31067 -1.41445 0.34
4.58695 -8.30979 -1.41543 0.34
4.62179 -8.34595 -1.4234 0.36
4.64881 -8.34207 -1.42438 0.31
4.67681 -8.34219 -1.42536 0.29
4.68098 -8.30421 -1.41835 0.26
4.70702 -8.29433 -1.41833 0.32
4.73009 -8.27843 -1.41631 0.26
4.75711 -8.27355 -1.41629 0.32
4.78608 -8.28068 -1.41926 0.3
4.80916 -8.26378 -1.41724 0.29
4.83026 -8.23887 -1.41323 0.27
4.83935 -8.21991 -1.41022 0.34
4.85751 -8.18099 -1.4042 0.33
4.89043 -8.20214 -1.41017 0.16
4.92235 -8.22028 -1.41415 0.3
4.93658 -8.16734 -1.40613 0.24
4.95472 -8.13443 -1.40112 0.25
4.97384 -8.10651 -1.3971 0.29
4.99298 -8.0746 -1.39208 0.18
5.01879 -8.11771 -1.40106 0.29
5.03201 -8.06677 -1.39305 0.23
5.05015 -8.03485 -1.38803 0.29
5.0742 -8.02396 -1.38701 0.2
5.10614 -8.0391 -1.39098 0.31
5.12427 -8.00918 -1.38697 0.23
5.15325 -8.01231 -1.38894 0.23
5.15936 -7.98833 -1.38494 0.21
5.19426 -8.01249 -1.39091 0.28
5.21536 -7.98958 -1.38889 0.25
5.24137 -7.9867 -1.38987 0.28
5.26641 -7.97681 -1.38885 0.27
5.29638 -7.98394 -1.39183 0.27
5.32635 -7.99208 -1.3948 0.25
5.33937 -7.98813 -1.39479 0.17
5.36934 -7.99527 -1.39777 0.29
5.39339 -7.98437 -1.39775 0.25
5.41842 -7.97648 -1.39772 0.25
5.45039 -7.98563 -1.4017 0.25
5.47641 -7.98074 -1.40168 0.27
5.50046 -7.96885 -1.40166 0.26
5.52237 -7.98995 -1.40664 0.2
5.54939 -7.98707 -1.40762 0.28
5.57443 -7.97818 -1.4076 0.25
5.60243 -7.9783 -1.40958 0.2
5.63538 -7.98945 -1.41355 0.28
5.65745 -7.97255 -1.41153 0.24
5.69239 -7.9887 -1.4165 0.2
5.70738 -7.99177 -1.41849 0.28
5.73044 -7.97687 -1.41747 0.23
5.76339 -7.98902 -1.42144 0.19
5.7924 -7.98814 -1.42342 0.27
5.81546 -7.97325 -1.4224 0.25
5.84743 -7.98139 -1.42538 0.2
5.8794 -7.98853 -1.42935 0.28
5.90444 -7.97864 -1.42933 0.23
5.92637 -7.99674 -1.43331 0.19
5.95042 -7.98485 -1.43329 0.28
5.97744 -7.97997 -1.43427 0.25
6.01536 -7.99913 -1.44024 0.19
6.03942 -7.98624 -1.44022 0.27
6.06843 -7.98537 -1.4412 0.25
6.09744 -7.9835 -1.44317 0.19
6.11541 -7.99058 -1.44616 0.26
6.14739 -7.99572 -1.44913 0.23
6.1754 -7.99285 -1.45011 0.2
6.20145 -7.98296 -1.45109 0.27
6.23243 -7.9871 -1.45406 0.23
6.26145 -7.98423 -1.45604 0.18
6.29343 -7.98937 -1.45901 0.26
6.31734 -8.00847 -1.46399 0.21
6.3424 -7.99559 -1.46397 0.12
6.36348 -7.97668 -1.46195 0.21
6.39844 -7.98684 -1.46593 0.17
6.43341 -7.99499 -1.4699 0.26
6.45945 -7.98711 -1.47088 0.21
6.49442 -7.99426 -1.47485 0.12
6.51042 -7.99533 -1.47684 0.21
6.53249 -7.97843 -1.47582 0.18
6.57241 -7.99661 -1.48178 0.26
6.59747 -7.98372 -1.48176 0.22
6.63343 -7.99488 -1.48573 0.18
6.66939 -8.00304 -1.49071 0.27
6.69246 -7.98714 -1.48969 0.25
6.70548 -7.9832 -1.48968 0.29
6.74244 -7.99336 -1.49465 0.29
6.77444 -7.9945 -1.49762 0.17
6.80545 -7.99164 -1.49959 0.27
6.8305 -7.98075 -1.50057 0.24
6.86052 -7.97689 -1.50155 0.24
6.90442 -8.00008 -1.50951 0.28
6.93445 -7.99521 -1.51149 0.27
6.94747 -7.99027 -1.51148 0.26
6.97253 -7.97738 -1.51146 0.29
6.98965 -7.94846 -1.50844 0.24
7.03258 -7.96765 -1.51541 0.25
7.0745 -7.98483 -1.52137 0.28
7.08964 -7.9539 -1.51836 0.27
7.11855 -7.97603 -1.52434 0.29
7.15453 -7.98119 -1.52831 0.23
7.18752 -7.98234 -1.53128 0.29
7.18083 -7.91131 -1.51928 0.19
7.21085 -7.90644 -1.52126 0.24
7.2389 -7.89656 -1.52223 0.16
7.2987 -7.94383 -1.53519 0.26
7.31781 -7.91891 -1.53317 0.1
7.29906 -7.85983 -1.52218 0.04
7.32115 -7.83993 -1.52116 0
7.31047 -7.76588 -1.50816 0
7.23227 -7.57854 -1.47121 0
7.14611 -7.38115 -1.43127 0
7.10861 -7.26599 -1.40929 0
7.12571 -7.24306 -1.40828 0.06
7.13774 -7.23612 -1.40827 0.14
7.16476 -7.23124 -1.40924 0.16
7.18683 -7.21534 -1.40922 0.18
7.21883 -7.21648 -1.4122 0.09
7.24488 -7.20659 -1.41318 0.18
7.28283 -7.21776 -1.41915 0.2
7.30987 -7.20988 -1.42012 0.1
7.33282 -7.22098 -1.4241 0.18
7.36582 -7.22213 -1.42808 0.1
7.39783 -7.22127 -1.43105 0.18
7.42983 -7.22141 -1.43403 0.11
7.46879 -7.23059 -1.43999 0.18
7.5008 -7.23073 -1.44297 0.2
7.53678 -7.23489 -1.44694 0.1
7.55974 -7.24499 -1.45092 0.17
7.59274 -7.24514 -1.45489 0.21
7.62277 -7.24027 -1.45687 0.1
7.6518 -7.2334 -1.45885 0.18
7.69275 -7.24558 -1.46481 0.2
7.72377 -7.24072 -1.46779 0.1
7.76473 -7.2509 -1.47275 0.16
7.77577 -7.24295 -1.47274 0.05
7.80381 -7.23507 -1.47472 0.16
7.84179 -7.24024 -1.47969 0.05
7.87579 -7.23939 -1.48366 0.16
7.91278 -7.24456 -1.48763 0.05
7.94778 -7.24371 -1.4916 0.16
7.9798 -7.23985 -1.49458 0.05
7.9968 -7.23993 -1.49656 0.17
8.03777 -7.24811 -1.50253 0.2
8.06085 -7.23121 -1.50251 0.17
8.09784 -7.23338 -1.50648 0.18
8.11395 -7.20845 -1.50447 0.09
8.13007 -7.18252 -1.50245 0.09
8.17601 -7.19672 -1.50941 0.09
8.22296 -7.20993 -1.51638 0.08
8.25487 -7.23007 -1.52335 0.08
8.29585 -7.23525 -1.52832 0.08
8.33484 -7.23843 -1.53329 0.15
8.3619 -7.22655 -1.53527 0.21
8.40686 -7.23675 -1.54123 0.17
8.43988 -7.23289 -1.5442 0.04
8.4739 -7.22804 -1.54817 0.16
8.4939 -7.23013 -1.55016 0.19
8.51498 -7.21023 -1.55014 0.09
8.53508 -7.18932 -1.54912 0.08
8.55517 -7.16741 -1.5481 0.04
8.61009 -7.18865 -1.55806 0.17
8.63914 -7.17778 -1.56004 0.2
8.65127 -7.14683 -1.55702 0.16
8.65436 -7.12684 -1.55402 0.16
8.68441 -7.11698 -1.55599 0.04
8.69455 -7.08502 -1.55298 0.17
8.70469 -7.05107 -1.54897 0.05
8.71384 -7.01711 -1.54596 0.17
8.75285 -7.01728 -1.55093 0.19
8.76895 -6.99235 -1.54892 0.17
8.77005 -6.97136 -1.54591 0.04
8.79313 -6.95346 -1.54689 0.08
8.81919 -6.93858 -1.54787 0.16
8.85123 -6.93072 -1.55084 0.16
8.87829 -6.91784 -1.55182 0.16
8.92725 -6.92906 -1.55978 0.17
8.96327 -6.92521 -1.56375 0.09
8.97132 -6.91225 -1.56274 0.09
9.01829 -6.92046 -1.56971 0.16
9.04536 -6.90658 -1.57068 0.21
9.04156 -6.85856 -1.56368 0.16
9.07162 -6.8477 -1.56666 0.24
9.07977 -6.81273 -1.56265 0.17
9.09289 -6.78479 -1.56063 0.25
9.10095 -6.77183 -1.55963 0.19
9.13398 -6.76397 -1.5626 0.23
9.1491 -6.73704 -1.56059 0.16
9.14431 -6.68902 -1.55459 0.23
9.16938 -6.67313 -1.55556 0.21
9.18848 -6.65121 -1.55455 0.18
9.23148 -6.6534 -1.56051 0.3
9.23862 -6.61944 -1.5565 0.09
9.21581 -6.57533 -1.54852 0.14
9.25582 -6.57451 -1.55349 0.25
9.27691 -6.55361 -1.55347 0.22
9.26315 -6.49955 -1.54447 0.18
9.32905 -6.52284 -1.55642 0.27
9.35213 -6.50494 -1.5564 0.22
9.38915 -6.5011 -1.56137 0.11
9.3992 -6.49015 -1.56136 0
9.38145 -6.43207 -1.55137 0
8.90655 -5.93496 -1.42472 0
8.77425 -5.77138 -1.38682 0
8.77142 -5.73236 -1.38082 0.03
8.80544 -5.72852 -1.38479 0.03
8.84743 -5.7317 -1.39075 0.07
8.86843 -5.7328 -1.39374 0.04
8.92337 -5.74804 -1.40369 0.07
8.95441 -5.74018 -1.40667 0.04
8.9954 -5.74236 -1.41263 0.07
9.03142 -5.73852 -1.41661 0.04
9.08537 -5.75176 -1.42556 0.07
9.12438 -5.74993 -1.43053 0.04
9.16133 -5.76409 -1.4375 0.08
9.20532 -5.76729 -1.44447 0.08
9.24433 -5.76546 -1.44943 0.08
9.27737 -5.75761 -1.45341 0.16
9.32037 -5.7588 -1.45937 0.16
9.36038 -5.75798 -1.46434 0.16
9.40438 -5.75817 -1.4703 0.16
9.44033 -5.77133 -1.47727 0.16
9.47138 -5.76147 -1.48025 0.16
9.51837 -5.76468 -1.48721 0.04
9.54842 -5.75281 -1.49018 0.08
9.53463 -5.70475 -1.48219 0.04
9.5587 -5.68886 -1.48417 0.07
9.58577 -5.67398 -1.48615 0.04
9.64165 -5.70222 -1.4971 0.08
9.66473 -5.68533 -1.49908 0.15
9.7197 -5.69357 -1.50704 0.04
9.74378 -5.67668 -1.50902 0.14
9.8446 -5.72012 -1.52894 0.22
9.83779 -5.67809 -1.52294 0.17
9.86585 -5.66422 -1.52492 0.04
9.82714 -5.59705 -1.51194 0.07
9.82821 -5.58005 -1.50994 0.14
9.93203 -5.62551 -1.52986 0.16
9.99 -5.63377 -1.53981 0.1
10.0141 -5.61587 -1.54079 0
9.98932 -5.55976 -1.53081 0
9.96156 -5.50264 -1.52083 0.06
9.96471 -5.46865 -1.51782 0.08
9.89501 -5.39835 -1.49887 0.15
9.98388 -5.42974 -1.5158 0.16
10.0169 -5.41889 -1.51978 0.04
9.92139 -5.31246 -1.49385 0.07
9.86072 -5.23319 -1.47589 0.08
9.80106 -5.15493 -1.45893 0.18
9.87598 -5.17526 -1.47187 0.11
9.90596 -5.18039 -1.47685 0.18
9.92107 -5.15646 -1.47683 0.12
9.93717 -5.13353 -1.47682 0.19
9.9094 -5.08041 -1.46684 0.13
9.92849 -5.05949 -1.46782 0.29
9.92664 -5.02449 -1.46382 0.22
10.0125 -5.04987 -1.47875 0.19
10.0036 -5.02683 -1.47576 0.18
10.0457 -5.02201 -1.48172 0.24
10.0678 -5.00311 -1.4827 0.23
10.1048 -4.99427 -1.48767 0.2
10.1398 -4.98443 -1.49164 0.26
10.146 -4.95446 -1.48964 0.21
10.1222 -4.90535 -1.48065 0.22
10.1741 -4.92258 -1.49061 0.26
10.1842 -4.89563 -1.4896 0.21
10.2163 -4.88277 -1.49357 0.18
10.2464 -4.8689 -1.49655 0.27
10.2934 -4.86511 -1.50351 0.19
10.3484 -4.86735 -1.51246 0.14
10.3705 -4.84745 -1.51344 0.18
10.3775 -4.83548 -1.51344 0.23
10.4315 -4.83472 -1.52139 0.19
10.4676 -4.82388 -1.52636 0.23
10.5146 -4.81909 -1.53332 0.23
10.5437 -4.80322 -1.5363 0.17
10.5748 -4.78836 -1.53927 0.27
10.5819 -4.75839 -1.53826 0.21
10.6189 -4.74755 -1.54223 0.12
10.626 -4.73458 -1.54223 0.21
10.7239 -4.75902 -1.56015 0.11
10.7131 -4.71897 -1.55515 0.2
10.7481 -4.70613 -1.55912 0.11
10.7543 -4.67515 -1.55712 0.19
10.8103 -4.6734 -1.56607 0.23
10.8612 -4.68663 -1.57503 0
10.9242 -4.68791 -1.58598 0
10.9493 -4.66802 -1.58796 0
10.8298 -4.56649 -1.55905 0
10.3829 -4.28251 -1.46239 0
10.3222 -4.21724 -1.44644 0
10.3653 -4.20943 -1.4524 0.06
10.4213 -4.20868 -1.46135 0.14
10.4902 -4.23098 -1.4743 0.16
10.5502 -4.23125 -1.48425 0.04
10.6172 -4.23554 -1.4962 0.16
10.6772 -4.23581 -1.50515 0.05
10.7582 -4.24617 -1.52008 0.16
10.8012 -4.23736 -1.52605 0.18
10.8632 -4.23663 -1.536 0.18
10.9251 -4.25291 -1.54695 0.17
10.9602 -4.23806 -1.55192 0.17
10.9624 -4.20707 -1.54991 0.18
10.9865 -4.18618 -1.55189 0.04
10.9796 -4.15015 -1.54789 0.15
11.0736 -4.16457 -1.56482 0.2
11.2154 -4.20219 -1.59071 0.16
11.2205 -4.18822 -1.5907 0.04
11.2516 -4.16935 -1.59367 0.15
11.3066 -4.1636 -1.60263 0.19
11.3127 -4.13263 -1.60162 0.1
11.3578 -4.12083 -1.60758 0.19
11.3789 -4.09792 -1.60956 0.11
11.396 -4.07299 -1.61055 0.17
11.4031 -4.04303 -1.60954 0.05
11.3683 -4.00987 -1.60057 0.16
11.4093 -3.99605 -1.60653 0.19
11.4634 -3.98729 -1.61449 0.16
11.4815 -3.96237 -1.61647 0.05
11.4537 -3.91725 -1.60849 0.16
11.5028 -3.90547 -1.61545 0.19
11.5179 -3.87953 -1.61643 0.18
11.5479 -3.87567 -1.62041 0.24
11.567 -3.85075 -1.62239 0.18
11.6101 -3.83594 -1.62835 0.24
11.6162 -3.80597 -1.62735 0.22
11.6193 -3.77398 -1.62534 0.2
11.6255 -3.74401 -1.62434 0.24
11.5887 -3.69485 -1.61436 0.18
11.6427 -3.70209 -1.62432 0.25
11.6508 -3.67212 -1.62331 0.19
11.6589 -3.64216 -1.6223 0.24
11.6671 -3.61319 -1.62229 0.21
11.6632 -3.57918 -1.61929 0.19
11.6763 -3.55123 -1.61928 0.28
11.6785 -3.51924 -1.61727 0.21
11.6746 -3.50123 -1.61628 0.12
11.6677 -3.4662 -1.61228 0.2
11.6728 -3.43622 -1.61127 0.11
11.682 -3.40726 -1.61026 0.21
11.6941 -3.37931 -1.61125 0.11
11.6922 -3.3463 -1.60825 0.18
11.6944 -3.31531 -1.60725 0.05
11.6815 -3.29426 -1.60326 0.17
11.7016 -3.26934 -1.60524 0.18
11.7007 -3.23734 -1.60324 0.18
11.6979 -3.20433 -1.60024 0.04
11.698 -3.17233 -1.59823 0.07
11.7141 -3.1464 -1.60022 0.04
11.7182 -3.11642 -1.59821 0
11.7254 -3.08745 -1.5982 0
11.6715 -3.05221 -1.58624 0
10.8817 -2.75271 -1.43187 0
10.8978 -2.72978 -1.43285 0
10.9848 -2.73017 -1.44778 0.03
11.1068 -2.74171 -1.46968 0.07
11.2088 -2.74516 -1.4886 0.04
11.3188 -2.75165 -1.50751 0.07
11.3908 -2.75897 -1.52045 0.04
11.4838 -2.75838 -1.53738 0.07
11.5359 -2.74461 -1.54533 0.04
11.5819 -2.72881 -1.55229 0.07
11.5811 -2.69781 -1.55029 0.04
11.6022 -2.6739 -1.55327 0.17
11.6752 -2.66522 -1.56521 0.11
11.6903 -2.65429 -1.5682 0.2
11.6604 -2.61516 -1.56022 0.2
11.6896 -2.59229 -1.5642 0.09
11.6767 -2.55823 -1.5602 0.18
11.6638 -2.52417 -1.55621 0.2
11.663 -2.49317 -1.55421 0.1
11.6631 -2.46317 -1.55321 0.18
11.6802 -2.45225 -1.55619 0.15
11.6803 -2.42225 -1.55419 0.29
11.6764 -2.39123 -1.55219 0.19
11.6936 -2.3653 -1.55417 0.21
11.6647 -2.32718 -1.5472 0.1
11.6908 -2.30429 -1.55017 0.18
11.5701 -2.24376 -1.52627 0.23
11.4572 -2.20026 -1.50435 0.04
11.3275 -2.13768 -1.47846 0.17
11.1828 -2.07304 -1.44957 0.17
11.2468 -2.06032 -1.46052 0.3
11.2799 -2.04047 -1.46549 0.22
11.0053 -1.94625 -1.4127 0.27
11.1313 -1.94881 -1.4356 0.27
11.1344 -1.93582 -1.4356 0.29
11.1255 -1.90578 -1.4326 0.27
11.1856 -1.89105 -1.44255 0.3
11.1297 -1.8508 -1.4306 0.29
11.1738 -1.833 -1.43756 0.3
11.128 -1.7948 -1.42859 0.29
11.193 -1.78108 -1.43954 0.31
11.2191 -1.7722 -1.44352 0.3
11.2532 -1.75135 -1.44949 0.25
11.3373 -1.74072 -1.46442 0.12
11.4283 -1.73113 -1.48034 0.17
11.4044 -1.69802 -1.47436 0.23
11.5235 -1.69255 -1.49626 0.1
11.6275 -1.68401 -1.51418 0.18
11.7116 -1.68538 -1.52911 0.05
11.8206 -1.67586 -1.54902 0.18
11.9497 -1.67043 -1.57191 0.05
12.0927 -1.66607 -1.5978 0.17
12.1968 -1.65353 -1.61671 0.11
12.2389 -1.63071 -1.62367 0.2
12.275 -1.60587 -1.62864 0.11
12.2441 -1.56974 -1.62266 0.18
12.2742 -1.55887 -1.62764 0.11
12.2523 -1.52477 -1.62265 0.19
12.2155 -1.48761 -1.61468 0.05
12.1627 -1.44938 -1.60372 0.16
12.1808 -1.42146 -1.6067 0.05
12.1519 -1.38633 -1.60073 0.16
12.1661 -1.35839 -1.60171 0.05
12.1232 -1.3372 -1.59375 0.16
12.1503 -1.31032 -1.59772 0.05
12.1294 -1.27723 -1.59374 0.16
12.1545 -1.25034 -1.59771 0.19
12.1567 -1.22035 -1.59671 0.18
12.1548 -1.19034 -1.59571 0.17
12.1659 -1.16139 -1.5977 0.16
12.17 -1.14641 -1.59769 0.04
12.1851 -1.11847 -1.59968 0.08
12.1793 -1.08745 -1.59768 0.04
12.1864 -1.05848 -1.59867 0.07
12.1855 -1.02747 -1.59767 0.04
12.1967 -0.998523 -1.59966 0.07
12.1978 -0.968528 -1.59966 0.04
12.1989 -0.953532 -1.59965 0.04
12.204 -0.924555 -1.59965 0.07
12.1971 -0.893524 -1.59765 0.04
12.2023 -0.863547 -1.59764 0.04
12.2084 -0.834574 -1.59864 0.04
12.1975 -0.803525 -1.59664 0.04
12.1897 -0.77249 -1.59465 0.04
12.2018 -0.743544 -1.59664 0.07
12.1979 -0.728526 -1.59564 0.04
12.208 -0.698571 -1.59663 0.07
12.1941 -0.667509 -1.59364 0.16
12.2023 -0.638545 -1.59463 0.16
12.2004 -0.608536 -1.59363 0.16
12.2115 -0.578585 -1.59561 0.17
12.2057 -0.548559 -1.59462 0.18
12.2067 -0.533564 -1.59462 0.17
12.2019 -0.503542 -1.59362 0.04
12.186 -0.472471 -1.58963 0.16
12.2151 -0.4446 -1.5956 0.19
12.2123 -0.414587 -1.5946 0.18
12.2154 -0.384601 -1.5946 0.17
12.2245 -0.354641 -1.59659 0.17
12.2216 -0.339628 -1.59559 0.04
12.2027 -0.308544 -1.5916 0.17
12.2189 -0.279615 -1.59459 0.19
12.22 -0.24962 -1.59458 0.04
12.1971 -0.219518 -1.5906 0.16
12.2313 -0.189669 -1.59657 0.05
12.2164 -0.159603 -1.59358 0.16
12.2205 -0.144621 -1.59457 0.05
12.2026 -0.114541 -1.59159 0.17
12.2187 -0.0846126 -1.59357 0.05
12.1999 -0.0545287 -1.59058 0.17
11.817 -0.0168261 -1.60089 0.04
11.8212 0.0121558 -1.60089 0.07
11.8153 0.0401821 -1.59989 0.04
11.8234 0.0691464 -1.60188 0.07
11.8125 0.0981949 -1.59989 0.04
11.8067 0.126221 -1.59889 0.07
11.8087 0.140212 -1.59889 0.04
11.8159 0.169181 -1.60088 0.07
11.808 0.198216 -1.59888 0.04
11.8171 0.227176 -1.60088 0
11.8102 0.255207 -1.59988 0
11.8194 0.284167 -1.60187 0
11.8195 0.313166 -1.60187 0
11.8256 0.32714 -1.60286 0
11.8287 0.356126 -1.60386 0
11.8608 0.386984 -1.61083 0
11.8279 0.41413 -1.60485 0
11.8681 0.444952 -1.61282 0
11.8582 0.472996 -1.61082 0
11.8663 0.501961 -1.61281 0
11.8694 0.516947 -1.61381 0
11.8735 0.545929 -1.6148 0
11.8727 0.574934 -1.6148 0
11.8778 0.604911 -1.6158 0
11.8629 0.631977 -1.61381 0
11.8701 0.661946 -1.6158 0
11.8602 0.68999 -1.6138 0
11.8632 0.704977 -1.6148 0
11.8624 0.733981 -1.6148 0
11.8585 0.761998 -1.6148 0
11.8326 0.789113 -1.60982 0
11.8478 0.819047 -1.61381 0
11.8259 0.846144 -1.60982 0
11.815 0.874192 -1.60783 0
11.8121 0.903205 -1.60783 0
11.8032 0.916245 -1.60683 0
11.8103 0.946214 -1.60883 0
11.7994 0.974262 -1.60683 0
11.8036 1.00324 -1.60883 0
11.7887 1.03031 -1.60584 0.06
11.7898 1.05931 -1.60683 0.04
11.7879 1.08831 -1.60783 0.07
11.78 1.10235 -1.60584 0.04
11.7941 1.13229 -1.60982 0.07
11.7753 1.15937 -1.60684 0.04
11.7794 1.18835 -1.60783 0.07
11.7695 1.2164 -1.60684 0.04
11.7656 1.24542 -1.60684 0.07
11.7578 1.27245 -1.60584 0.04
11.7558 1.28746 -1.60584 0.07
11.752 1.31548 -1.60585 0.04
11.7551 1.34546 -1.60784 0.07
11.7492 1.37349 -1.60784 0.04
11.7433 1.40152 -1.60685 0.07
11.7465 1.4315 -1.60884 0.04
11.7376 1.45854 -1.60785 0.07
11.7397 1.47353 -1.60884 0.14
11.7348 1.50256 -1.60884 0.04
11.7399 1.53253 -1.61084 0.08
11.725 1.5586 -1.60885 0.04
11.7202 1.58762 -1.60885 0.07
11.7133 1.61565 -1.60785 0.04
11.7174 1.64563 -1.60985 0.07
11.7045 1.67269 -1.60886 0.04
11.7076 1.68768 -1.60985 0.07
11.6947 1.71474 -1.60786 0.04
11.7009 1.74471 -1.61085 0.07
11.688 1.77177 -1.60886 0.15
11.6881 1.80077 -1.60986 0.04
11.6862 1.82977 -1.61086 0.08
11.6804 1.8588 -1.61086 0.15
11.6774 1.87281 -1.61086 0.16
11.6716 1.90084 -1.61087 0.16
11.6597 1.92789 -1.60987 0.04
11.6538 1.95592 -1.60988 0.08
11.6479 1.98395 -1.60988 0.16
11.6411 2.01198 -1.60988 0.16
11.6372 2.04099 -1.60988 0.16
11.6332 2.05501 -1.60989 0.04
11.6214 2.08106 -1.60889 0.07
11.6115 2.10811 -1.6079 0.08
11.6136 2.1391 -1.6099 0.16
11.6127 2.1681 -1.61089 0.16
11.6039 2.19614 -1.6109 0.16
11.593 2.22319 -1.60991 0.16
11.5951 2.23818 -1.6109 0.16
11.5882 2.26621 -1.61091 0.16
11.5753 2.29227 -1.60991 0.16
11.5644 2.31932 -1.60892 0.16
11.5646 2.34932 -1.61092 0.16
11.5667 2.37931 -1.61292 0.17
11.5368 2.40144 -1.60794 0.16
11.5439 2.43341 -1.61093 0.16
11.54 2.44743 -1.61093 0.16
11.5341 2.47546 -1.61193 0.17
11.5262 2.50349 -1.61194 0.16
11.5154 2.52954 -1.61095 0.16
11.5145 2.55954 -1.61294 0.17
11.4876 2.58166 -1.60896 0.16
11.4907 2.61265 -1.61096 0.17
11.4908 2.62765 -1.61196 0.16
11.4799 2.6547 -1.61096 0.16
11.477 2.68471 -1.61297 0.16
11.4712 2.71274 -1.61297 0.16
11.4563 2.73781 -1.61198 0.04
11.4574 2.7688 -1.61397 0.07
11.4395 2.79288 -1.61199 0.08
11.4406 2.80888 -1.61299 0.08
11.4277 2.83493 -1.61199 0.08
11.4278 2.86593 -1.61399 0.15
11.414 2.89099 -1.613 0.16
11.4061 2.91903 -1.61301 0.16
11.3992 2.94706 -1.61401 0.16
11.3953 2.97608 -1.61501 0.04
11.3884 2.98911 -1.61401 0.07
11.3865 3.01912 -1.61601 0.16
11.3827 3.04814 -1.61701 0.16
11.3748 3.07617 -1.61702 0.16
11.3639 3.10322 -1.61703 0.04
11.359 3.13224 -1.61803 0.08
11.3361 3.15434 -1.61604 0.04
11.3343 3.18435 -1.61704 0.07
11.3253 3.19639 -1.61605 0.04
11.3154 3.22344 -1.61606 0.08
11.3016 3.2495 -1.61606 0.04
11.2927 3.27754 -1.61607 0.07
11.2878 3.30656 -1.61707 0.04
11.2809 3.33459 -1.61808 0.07
11.254 3.35571 -1.6141 0.04
11.2621 3.37367 -1.61709 0.07
11.2442 3.39775 -1.6161 0.15
11.2474 3.43074 -1.6191 0.04
11.2295 3.45482 -1.61711 0.07
11.2136 3.47889 -1.61612 0.04
11.2117 3.5099 -1.61812 0.08
11.1948 3.53398 -1.61713 0.08
11.1889 3.547 -1.61713 0.16
11.185 3.57702 -1.61814 0.16
11.1631 3.59912 -1.61615 0.17
11.1642 3.63111 -1.61915 0.16
11.1494 3.65618 -1.61816 0.17
11.1395 3.68322 -1.61816 0.16
11.1296 3.71027 -1.61917 0.16
11.1136 3.71934 -1.61618 0.16
11.0997 3.7444 -1.61619 0.16
11.0879 3.77145 -1.6162 0.16
11.08 3.79949 -1.6172 0.16
11.0601 3.82258 -1.61522 0.16
11.0412 3.84466 -1.61423 0.16
11.0403 3.87667 -1.61623 0.17
11.0324 3.8887 -1.61624 0.17
11.0215 3.91575 -1.61624 0.17
11.0026 3.93883 -1.61426 0.17
10.9947 3.96687 -1.61626 0.16
10.9808 3.99193 -1.61527 0.17
10.975 4.02196 -1.61727 0.18
10.9591 4.04603 -1.61628 0.16
10.9562 4.06104 -1.61728 0.16
10.9613 4.09502 -1.62028 0.16
10.9374 4.11613 -1.6183 0.04
10.9295 4.14416 -1.6193 0.13
10.9587 4.19203 -1.62827 0.23
10.9138 4.20123 -1.62231 0.24
10.8798 4.21638 -1.61734 0.28
10.889 4.25434 -1.62232 0.27
10.87 4.26043 -1.61934 0.29
10.8411 4.27755 -1.61636 0.16
10.8693 4.32543 -1.62534 0.3
10.8494 4.34752 -1.62435 0.25
10.8265 4.36862 -1.62237 0.19
10.8367 4.40758 -1.62736 0.26
10.8158 4.42867 -1.62537 0.1
10.8109 4.44269 -1.62637 0
10.826 4.48462 -1.63236 0
10.8342 4.52259 -1.63735 0
10.8274 4.55162 -1.63935 0
10.8435 4.59455 -1.64634 0
10.8216 4.61665 -1.64435 0
10.8278 4.65362 -1.64934 0
10.8239 4.66864 -1.64935 0
10.814 4.69668 -1.65135 0
10.8182 4.73366 -1.65535 0
10.8123 4.76369 -1.65735 0
10.7984 4.79075 -1.65736 0
10.7936 4.82177 -1.65936 0
10.7867 4.85181 -1.66136 0
10.7808 4.86583 -1.66237 0
10.7719 4.89587 -1.66337 0
10.7721 4.92987 -1.66637 0
10.7642 4.96091 -1.66837 0
10.7493 4.98597 -1.66838 0
10.7434 5.017 -1.67139 0
10.7296 5.04406 -1.67139 0
10.7216 5.0561 -1.6714 0
10.7118 5.08614 -1.67341 0
10.7029 5.11518 -1.67441 0
10.6549 5.12039 -1.66745 0
10.6801 5.17228 -1.67643 0
10.6442 5.18344 -1.67245 0
10.6594 5.22938 -1.67944 0
10.6245 5.24253 -1.67547 0
10.6085 5.2496 -1.67348 0
10.6026 5.28163 -1.67648 0
10.5897 5.30869 -1.67649 0
10.5779 5.33674 -1.6785 0
10.561 5.36182 -1.67851 0
10.5581 5.39683 -1.68151 0
10.5433 5.42189 -1.68152 0
10.5413 5.4389 -1.68352 0
10.5335 5.47094 -1.68552 0
10.5196 5.497 -1.68653 0.06
10.5037 5.52307 -1.68654 0.04
10.4958 5.55411 -1.68955 0.04
10.483 5.58217 -1.69055 0
10.4711 5.61022 -1.69156 0.07
10.4812 5.63617 -1.69555 0.04
10.4583 5.65728 -1.69457 0.07
10.4464 5.68633 -1.69658 0.04
10.4356 5.71538 -1.69758 0.04
10.4137 5.73748 -1.6976 0
10.3978 5.76255 -1.69761 0
10.3839 5.79061 -1.69862 0
10.392 5.81557 -1.70261 0
10.3721 5.83866 -1.70263 0
10.3683 5.87368 -1.70563 0
10.3725 5.91566 -1.71162 0
10.3375 5.92582 -1.70765 0
10.3166 5.94891 -1.70666 0
10.3118 5.98393 -1.71066 0
10.3028 5.99597 -1.71067 0
10.305 6.03696 -1.71567 0
10.2921 6.06602 -1.71767 0
10.2823 6.09706 -1.71968 0
10.2684 6.12413 -1.72069 0
10.2505 6.14921 -1.7207 0
10.2356 6.17727 -1.72271 0
10.2177 6.20135 -1.72272 0
10.2198 6.22334 -1.72572 0
10.202 6.24842 -1.72573 0
10.1841 6.2735 -1.72675 0
10.1712 6.30356 -1.72875 0
10.1623 6.3356 -1.73076 0
10.1334 6.35173 -1.72878 0
10.1216 6.38278 -1.73079 0
10.1136 6.39482 -1.73179 0
10.0987 6.42388 -1.7328 0
10.0849 6.45195 -1.73481 0
10.072 6.482 -1.73682 0
10.0561 6.50907 -1.73783 0
10.0352 6.53217 -1.73785 0
10.0424 6.58014 -1.74484 0
10.0365 6.59516 -1.74584 0
10.0126 6.61627 -1.74486 0
9.99773 6.64434 -1.74687 0
9.98185 6.67141 -1.74788 0
9.95895 6.69251 -1.7479 0
9.94709 6.72356 -1.7499 0
9.93523 6.75562 -1.75291 0
9.9293 6.77064 -1.75392 0
9.90941 6.79473 -1.75393 0
9.89253 6.82181 -1.75494 0
9.88067 6.85386 -1.75795 0
9.85877 6.87596 -1.75797 0
9.82381 6.88511 -1.75399 0
9.823 6.92812 -1.75999 0
9.79598 6.92424 -1.75601 0
9.79819 6.97023 -1.76201 0
9.76222 6.97839 -1.75804 0
9.7363 6.9965 -1.75706 0
9.72043 7.02357 -1.75907 0
9.70355 7.05165 -1.76008 0
9.67863 7.07076 -1.7591 0
9.68075 7.09575 -1.76309 0
9.66287 7.12183 -1.76411 0
9.64498 7.14791 -1.76612 0
9.62911 7.17698 -1.76713 0.12
9.62631 7.21999 -1.77313 0.05
9.6024 7.2401 -1.77315 0.14
9.58552 7.26718 -1.77416 0.22
9.55056 7.27633 -1.77119 0.17
9.54363 7.29236 -1.77219 0.24
9.5157 7.30849 -1.77121 0.19
