ply
format ascii 1.0
element vertex 1402
property float x
property float y
property float z
property uchar red
property uchar green
property uchar blue
end_header
5.82469 1.00086 23.9553 50 47 39
7.06666 -0.835228 28.8985 15 19 16
6.48349 4.08417 26.5136 104 117 128
6.95625 -1.76839 28.4469 27 32 17
6.95625 -1.76839 28.4469 27 32 17
5.32111 1.8742 21.7602 27 27 26
5.32111 1.8742 21.7602 27 27 26
7.06666 -1.35589 28.8985 40 44 48
7.06666 -1.35589 28.8985 40 44 48
9.82059 5.35143 40.1604 145 115 92
6.68243 -5.22926 27.1732 35 27 21
7.85479 8.46149 31.9404 94 92 63
6.95943 -1.91611 28.2995 20 30 21
6.74959 -5.96651 27.4463 32 33 17
6.36573 3.84389 25.8854 198 130 139
8.19006 5.73016 33.3037 33 39 70
6.6166 -3.46244 26.9055 38 32 24
9.01456 7.32308 36.6564 90 81 78
7.07193 -1.10391 28.5959 22 24 16
6.85654 -2.29988 27.7249 13 18 19
8.4367 8.75196 33.9243 211 205 191
8.75563 4.81092 35.0116 136 116 102
8.75563 4.81092 35.0116 136 116 102
8.03458 2.41099 32.1283 73 57 49
8.03458 2.41099 32.1283 73 57 49
6.5353 4.09799 26.1331 59 56 58
6.44282 4.0757 25.7633 27 46 55
10.3476 3.50648 41.3773 142 118 94
6.23689 0.8346 24.9398 92 76 62
8.08212 6.27728 32.3184 84 74 83
6.66282 4.06717 26.643 75 47 42
6.66282 4.06717 26.643 75 47 42
6.82939 -5.93667 27.309 125 154 134
6.90175 -6.23278 27.4463 23 27 28
6.90175 -6.23278 27.4463 23 27 28
6.73259 -5.33789 26.7736 23 27 17
5.60591 1.36396 22.2931 66 53 40
6.97484 -5.19379 27.5849 21 31 37
7.62993 6.90664 30.1757 234 222 205
7.46496 6.42997 29.5233 120 97 96
5.41576 4.78362 21.4189 255 253 233
7.04601 -1.46195 27.8664 42 66 31
8.12363 -0.794995 32.1283 44 46 33
8.12363 -0.794995 32.1283 44 46 33
6.87073 -4.85265 27.1732 20 34 22
10.2858 11.0543 40.4578 147 110 115
6.8742 -3.29221 27.0387 26 22 22
5.44544 1.90418 21.4189 17 33 31
5.44544 1.90418 21.4189 17 33 31
7.54667 0.540821 29.6837 47 47 40
7.04867 -1.64666 27.7249 36 105 76
10.0622 7.41313 39.5783 255 255 204
10.0622 7.41313 39.5783 255 255 204
6.97783 -2.20068 27.4463 105 104 73
6.97783 -2.20068 27.4463 105 104 73
6.97783 -2.20068 27.4463 105 104 73
6.97783 -2.20068 27.4463 105 104 73
7.84513 4.4112 30.8577 23 29 34
7.84513 4.4112 30.8577 23 29 34
6.97783 -2.8093 27.4463 18 17 17
7.08709 -4.41324 27.7249 29 47 46
10.6343 10.388 41.3773 184 166 164
6.94914 -5.87789 27.0387 32 34 19
9.61457 5.50336 37.4097 114 89 63
8.45619 4.56671 32.9025 124 101 79
7.12552 -1.03186 27.7249 20 21 16
6.88101 5.60847 26.7736 94 95 91
5.50481 4.24929 21.4189 255 182 118
10.6343 7.00459 41.3773 21 28 49
7.38899 5.8713 28.5959 201 206 170
9.86921 6.57165 38.1945 58 49 37
6.65706 3.25446 25.7633 39 22 21
6.9213 -5.34877 26.643 22 22 21
6.14228 1.08617 23.6442 17 41 48
9.45911 3.2371 36.4121 157 111 107
9.45911 3.2371 36.4121 157 111 107
6.53855 4.01667 25.1696 51 42 31
6.98949 5.00218 26.9055 97 72 53
6.98949 5.00218 26.9055 97 72 53
7.02409 3.15326 27.0387 21 45 57
6.98949 -4.84213 26.9055 92 119 105
7.75337 6.6657 29.846 112 101 90
7.23911 -1.34609 27.8664 109 118 78
7.23911 -1.34609 27.8664 109 118 78
5.82219 1.39486 22.2931 76 47 31
7.50756 -0.472268 28.7464 77 70 49
7.88086 6.57207 30.1757 103 92 74
7.06156 -2.80505 27.0387 58 89 65
7.06156 -2.80505 27.0387 58 89 65
5.99343 1.81755 22.9488 68 45 46
5.99343 1.81755 22.9488 68 45 46
5.99343 1.81755 22.9488 68 45 46
7.46825 3.21596 28.5959 151 115 59
7.39086 -2.70053 28.2995 68 89 78
7.39086 -2.70053 28.2995 68 89 78
8.75114 8.64457 33.508 179 174 173
5.80569 5.27567 22.1126 198 181 158
5.80569 5.27567 22.1126 198 181 158
6.00002 5.26223 22.8528 234 255 255
7.31635 -1.15299 27.8664 31 36 24
7.66848 4.21579 29.2075 139 116 103
5.62355 4.21961 21.4189 217 249 255
5.62355 4.21961 21.4189 217 249 255
7.35498 -2.04126 27.8664 19 21 16
9.18201 3.23741 34.7886 23 27 28
9.18201 3.23741 34.7886 23 27 28
7.54751 -0.509428 28.5959 85 96 57
7.03207 -5.31185 26.643 195 218 125
8.95388 4.42643 33.9243 37 35 51
7.46982 -2.56956 28.1537 22 19 17
6.83559 4.25423 25.7633 60 59 74
8.00632 6.40479 30.1757 62 32 42
8.14126 5.4921 30.6843 60 43 25
9.05716 6.34651 34.1363 69 59 40
6.06337 1.68326 22.8528 151 112 91
6.06337 1.68326 22.8528 151 112 91
7.20968 -3.27093 27.1732 22 23 19
7.069 -5.27492 26.643 142 164 171
7.069 -5.27492 26.643 142 164 171
6.709 0.951327 25.2862 62 23 21
7.31891 -1.33249 27.5849 37 40 26
7.47033 -2.82811 28.0093 18 23 15
6.09504 1.27152 22.8528 117 93 79
7.35714 -1.48542 27.5849 21 24 16
7.74848 0.247464 29.0522 29 24 18
7.39449 -0.955009 27.7249 96 127 62
7.74754 -0.55487 28.8985 17 16 25
5.88066 1.49405 21.935 44 43 37
7.47084 -1.19161 27.8664 26 29 37
7.47084 -1.19161 27.8664 26 29 37
6.15245 5.28434 22.9488 115 87 63
7.58696 0.633265 28.2995 138 123 85
7.47084 6.64842 27.8664 255 250 223
5.91106 1.46365 21.935 60 39 32
5.91106 1.46365 21.935 60 39 32
7.47134 0.774105 27.7249 122 123 97
7.17978 -5.0903 26.643 28 25 15
7.91319 4.44194 29.3646 22 19 19
7.91319 4.44194 29.3646 22 19 19
8.41059 2.90442 31.2103 157 124 95
7.47134 -6.33448 27.7249 20 28 28
7.2167 -4.79489 26.643 18 25 35
7.36032 5.35323 27.1732 228 255 237
7.74567 -2.92697 28.5959 36 40 25
6.97841 6.82507 25.7633 181 156 138
7.86927 6.16631 29.0522 225 195 171
7.18167 4.85584 26.5136 62 54 53
8.26107 4.46384 30.3434 131 102 76
7.5867 -2.35023 27.8664 15 17 16
7.28918 -5.26367 26.7736 38 33 26
7.90774 0.0859499 28.8985 255 210 192
7.51037 -5.81435 27.4463 30 29 19
7.5483 -2.02065 27.5849 24 32 16
7.5483 -1.14134 27.5849 26 35 23
7.54841 -3.64615 27.4463 23 22 14
9.88245 3.49331 35.933 7 18 33
9.88245 3.49331 35.933 7 18 33
6.92227 0.912059 25.1696 69 55 40
7.3634 -5.15235 26.7736 22 25 18
7.62504 -0.80131 27.7249 82 137 67
7.70324 -2.71165 28.0093 20 25 14
6.53101 4.87573 23.747 47 66 87
6.53101 4.87573 23.747 47 66 87
8.29908 7.65943 30.1757 237 221 198
7.74206 -0.304883 28.0093 21 25 23
7.54851 -5.55819 27.309 55 55 37
6.50734 6.26933 23.5423 255 255 228
9.31915 9.25865 33.7149 197 186 185
8.29507 5.49617 30.0099 255 255 202
8.29507 5.49617 30.0099 255 255 202
7.66299 -2.13534 27.5849 25 31 16
7.74118 -2.77506 27.8664 15 15 17
7.62448 6.73838 27.4463 255 237 220
7.66299 -2.32649 27.5849 91 106 74
7.02441 4.07031 25.2862 34 35 29
6.95996 4.48438 25.0542 68 84 92
6.24392 2.55893 22.4766 130 105 84
6.24392 2.55893 22.4766 130 105 84
7.74118 4.25393 27.8664 150 114 109
7.74118 4.25393 27.8664 150 114 109
6.40199 6.23288 23.0456 102 100 100
7.43761 -4.59576 26.7736 32 27 22
7.43761 -4.59576 26.7736 32 27 22
6.6879 1.53206 23.9553 118 99 75
6.6879 1.53206 23.9553 118 99 75
7.86001 -0.50155 28.1537 79 112 102
6.48869 4.03113 23.2417 65 35 38
7.7798 -6.59852 27.8664 141 162 94
6.05096 4.26984 21.6738 248 217 138
6.05096 4.26984 21.6738 248 217 138
7.77874 -6.44975 27.7249 41 55 38
6.7211 2.32887 23.9553 156 123 91
7.81843 6.30083 27.8664 125 104 83
7.77768 -5.84372 27.5849 22 28 22
8.06273 -5.06709 28.5959 26 45 30
6.44344 4.66045 22.8528 242 238 216
6.33737 4.80179 22.4766 248 251 236
6.33737 4.80179 22.4766 248 251 236
7.85705 0.469088 27.8664 36 29 29
7.85705 0.469088 27.8664 36 29 29
6.18466 4.35168 21.935 209 137 155
8.02073 -5.15897 28.4469 20 21 29
8.36514 4.62962 29.5233 144 118 100
7.81591 -2.47941 27.5849 22 28 22
7.81591 -6.30248 27.5849 26 41 30
7.54903 3.73484 26.643 27 30 43
6.878 1.75435 24.2747 73 58 55
6.878 1.75435 24.2747 73 58 55
7.93616 0.0833053 28.0093 50 45 51
7.93616 5.2074 28.0093 42 43 36
8.09959 -5.0407 28.4469 21 21 13
6.85075 6.14064 24.0608 190 204 181
6.85075 6.14064 24.0608 190 204 181
7.33547 0.826452 25.7633 129 136 100
8.01608 0.317849 28.1537 26 21 21
7.47654 1.97052 26.2587 39 39 47
7.47654 1.97052 26.2587 39 39 47
11.6619 4.8664 40.7598 127 106 79
11.3238 4.01226 39.5783 12 21 37
7.73609 -5.46568 27.0387 95 112 156
6.7943 1.58456 23.747 101 102 80
6.7943 1.58456 23.747 101 102 80
7.93244 -1.60823 27.7249 52 100 43
7.93244 -1.60823 27.7249 52 100 43
8.05261 0.0444864 28.0093 27 23 22
8.05261 -0.343702 28.0093 28 25 19
11.8959 8.20886 41.3773 187 207 157
11.8959 8.20886 41.3773 187 207 157
8.05261 0.549132 28.0093 11 20 17
11.2702 4.82005 39.0129 22 34 34
8.00929 -0.916584 27.7249 14 16 16
7.23926 0.869165 24.9398 149 150 99
10.7633 7.47485 36.9041 81 40 43
6.66514 4.97718 22.8528 117 64 32
6.66514 4.97718 22.8528 117 64 32
10.461 3.6189 35.6981 142 114 87
10.461 3.6189 35.6981 142 114 87
8.16601 6.99601 27.8664 106 92 84
8.00269 -5.78528 27.309 17 22 19
8.00269 0.686797 27.309 146 128 96
9.09397 0.307346 31.033 174 151 124
9.09397 0.307346 31.033 174 151 124
9.09397 0.307346 31.033 174 151 124
8.08353 -1.25603 27.5849 146 114 97
8.08353 -1.25603 27.5849 146 114 97
8.12456 -4.29796 27.7249 23 28 39
8.12456 -4.29796 27.7249 23 28 39
7.96288 -5.64352 27.1732 155 105 70
6.90175 5.46271 23.4412 63 72 69
8.20463 -1.46195 27.8664 15 21 16
8.50851 -5.08066 28.8985 31 29 20
10.7207 7.0724 36.4121 30 21 26
10.7207 7.0724 36.4121 30 21 26
10.7207 7.0724 36.4121 30 21 26
6.9315 1.60353 23.5423 126 94 73
6.9315 1.60353 23.5423 126 94 73
8.36726 -4.48148 28.1537 114 121 211
8.36726 -4.48148 28.1537 114 121 211
8.36726 -4.48148 28.1537 114 121 211
6.36568 3.77433 21.4189 214 160 118
7.9571 7.09272 26.7736 160 144 123
6.36568 4.96173 21.4189 255 252 168
6.54535 1.65269 22.0234 57 70 72
9.83786 5.05315 33.1019 131 104 82
9.42669 0.268921 31.5712 129 49 32
9.42669 0.268921 31.5712 129 49 32
7.18422 1.03861 24.0608 84 75 71
8.23645 -6.18779 27.5849 27 34 21
9.16189 7.83105 30.6843 80 85 73
12.3547 8.55294 41.3773 96 67 63
7.34703 1.19302 24.4924 137 109 76
7.34703 1.19302 24.4924 137 109 76
9.99016 5.49937 33.3037 150 115 93
7.72824 3.82576 25.7633 40 28 27
9.36221 -0.556004 31.2103 88 63 38
8.19193 -5.48249 27.309 79 96 102
8.19193 -5.48249 27.309 79 96 102
8.57794 -4.67077 28.5959 22 29 26
6.91578 4.20295 22.9488 5 23 32
6.91578 4.20295 22.9488 5 23 32
7.44777 5.45106 24.7141 177 150 196
9.1442 4.67411 30.3434 120 111 108
8.14545 3.73435 26.9055 18 39 52
6.48442 1.19173 21.4189 36 29 39
6.48442 1.19173 21.4189 36 29 39
6.48442 1.19173 21.4189 36 29 39
9.08531 5.24662 30.0099 48 47 32
9.08531 5.24662 30.0099 48 47 32
7.55035 2.35545 24.9398 87 41 22
7.55035 2.35545 24.9398 87 41 22
10.7863 5.95478 35.4663 139 115 91
8.34722 -4.59712 27.4463 25 23 16
8.51844 7.03188 28.0093 103 98 75
7.41561 5.20909 24.3831 228 230 255
8.26416 -4.02413 27.1732 14 21 16
9.54653 -0.90723 31.3897 15 16 17
11.1483 2.59838 36.6564 128 96 76
8.34722 -6.00454 27.4463 31 24 22
8.22325 -5.76547 27.0387 203 110 95
10.4471 7.90989 34.351 40 46 54
10.4471 7.90989 34.351 40 46 54
8.47038 -6.2192 27.7249 225 248 255
8.47038 -6.2192 27.7249 225 248 255
7.04078 2.0488 23.0456 129 119 63
7.04078 2.0488 23.0456 129 119 63
9.68922 0.137654 31.5712 212 154 118
8.13706 -5.50654 26.5136 33 30 23
7.51675 4.45172 24.4924 25 21 23
11.5602 4.02738 37.6677 137 109 95
11.5602 4.02738 37.6677 137 109 95
12.6988 9.29843 41.3773 253 252 194
12.6988 9.29843 41.3773 253 252 194
11.1009 6.17335 36.1709 143 117 97
8.76982 -1.57126 28.4469 17 23 17
8.81573 -4.51224 28.5959 22 22 10
9.67704 0.00635157 31.3897 28 32 36
8.46133 -6.04258 27.4463 22 60 52
8.54723 2.08055 27.7249 28 20 29
8.54723 2.08055 27.7249 28 20 29
8.54723 -6.3729 27.7249 31 43 30
7.19575 5.05118 23.3411 40 42 45
7.86825 3.82538 25.5225 47 49 45
6.63284 1.28079 21.4189 53 39 44
6.63284 1.28079 21.4189 53 39 44
6.63284 1.28079 21.4189 53 39 44
7.68807 3.75546 24.8264 43 37 46
8.895 4.56345 28.5959 114 124 84
8.05187 6.21166 25.8854 48 51 48
10.7528 7.00176 34.5684 35 29 18
7.58451 -5.04154 24.2747 27 24 17
7.41963 3.32888 23.747 36 19 22
8.61876 -6.0731 27.5849 32 28 33
8.74533 -4.31989 27.8664 255 217 198
8.74533 -4.31989 27.8664 255 217 198
11.8213 7.89053 37.6677 180 178 153
10.3258 6.20832 32.9025 16 41 40
9.73911 -0.0367302 31.033 38 26 26
9.73911 -0.0367302 31.033 38 26 26
11.6604 4.17857 37.1552 32 19 26
8.92752 2.0953 28.4469 126 95 78
8.92752 2.0953 28.4469 126 95 78
8.40237 4.30975 26.7736 136 107 120
8.0853 4.61129 25.7633 21 13 14
8.0853 4.61129 25.7633 21 13 14
8.78395 -4.59024 27.8664 21 26 39
7.68595 -5.09784 24.3831 19 26 21
9.01389 4.48418 28.5959 35 38 49
8.12101 -4.7794 25.7633 30 25 22
8.60827 -6.46655 27.309 24 29 25
9.88127 -0.815536 31.2103 109 64 57
12.264 8.54386 38.7362 63 34 32
8.68956 -6.23278 27.4463 41 52 58
7.45355 0.885718 23.5423 152 153 99
11.7634 7.5257 37.1552 144 118 106
6.86479 4.10336 21.5882 209 186 122
6.81095 5.19921 21.4189 52 58 82
7.39061 1.80854 23.2417 13 21 31
7.39061 1.80854 23.2417 13 21 31
11.327 7.67516 35.4663 183 228 238
10.2009 5.58412 31.9404 135 107 84
8.26712 6.03228 25.8854 76 72 65
8.26712 6.03228 25.8854 76 72 65
9.48023 0.417402 29.6837 191 169 160
8.67842 -3.91115 27.1732 20 21 20
13.2149 9.29843 41.3773 217 255 249
13.2149 9.29843 41.3773 217 255 249
11.4761 7.62675 35.933 56 61 39
12.2513 4.29545 38.1945 152 117 90
8.07342 3.42366 25.1696 127 113 74
9.84231 -0.0788437 30.6843 44 28 42
6.97981 5.49318 21.7602 163 157 124
8.5879 -4.37312 26.7736 26 23 21
8.5879 -4.37312 26.7736 26 23 21
7.2096 -4.76155 22.4766 38 41 46
9.626 7.61734 30.0099 217 147 122
9.07737 -6.3481 28.2995 89 131 69
9.07737 -6.3481 28.2995 89 131 69
8.46344 6.22198 26.3856 255 255 193
8.46344 6.22198 26.3856 255 255 193
6.87032 5.28827 21.4189 222 222 223
6.87032 5.28827 21.4189 222 222 223
12.3042 6.51871 38.1945 69 64 56
12.3042 6.51871 38.1945 69 64 56
8.22197 5.87697 25.5225 229 255 255
7.92568 3.44884 24.6027 40 27 24
7.92568 3.44884 24.6027 40 27 24
7.18164 3.34135 22.2931 60 55 34
9.30953 5.81327 28.8985 70 46 33
12.6583 6.97859 39.2936 142 121 80
11.7805 6.06311 36.4121 132 115 82
9.76283 2.30628 30.1757 116 95 89
12.5324 8.49017 38.7362 55 26 18
8.25734 5.31101 25.5225 217 202 159
7.95803 -3.2198 24.4924 12 21 19
8.41062 -5.66305 25.8854 56 44 45
13.4443 4.71075 41.3773 139 113 92
13.4443 4.71075 41.3773 139 113 92
9.75078 2.29361 30.0099 116 92 77
9.75078 2.29361 30.0099 116 92 77
9.96989 -0.92937 30.6843 16 13 16
7.18478 -4.71508 22.1126 255 255 255
7.18478 -4.71508 22.1126 255 255 255
9.10072 2.76181 28.0093 145 112 93
9.64479 0.458542 29.6837 207 184 152
7.30305 1.09483 22.4766 84 70 65
8.03005 -4.72177 24.7141 15 22 19
8.69922 -4.33602 26.7736 29 52 39
8.69922 -4.33602 26.7736 29 52 39
6.98906 5.34764 21.4189 83 93 112
9.90117 -1.21342 30.3434 23 23 19
9.33095 6.98099 28.5959 255 240 208
9.33095 6.98099 28.5959 255 240 208
7.48828 -2.88965 22.9488 68 148 162
10.6084 6.53993 32.5108 40 30 27
7.7152 -4.84505 23.6442 39 40 32
7.39507 -3.10495 22.6631 25 20 15
10.1692 -0.423816 31.033 255 173 142
10.1692 -0.423816 31.033 255 173 142
7.24607 3.62076 22.1126 43 41 48
8.35977 5.95526 25.4038 194 220 173
9.6115 0.532144 29.2075 80 58 39
7.98822 -3.76311 24.2747 20 29 33
7.24738 1.10328 22.0234 83 73 69
8.725 5.59076 26.5136 54 39 55
7.07812 1.28079 21.4189 133 97 67
7.2779 5.71224 22.0234 45 50 62
13.1746 4.75984 39.8672 28 21 23
13.1746 4.75984 39.8672 28 21 23
8.39498 2.11761 25.4038 64 53 54
10.14 -0.759264 30.6843 56 44 34
10.1973 -0.720788 30.8577 70 56 26
7.55204 3.88407 22.7575 139 116 92
7.55204 3.88407 22.7575 139 116 92
7.81245 -4.88943 23.5423 255 255 245
7.6155 5.76142 22.9488 88 69 45
7.5207 3.08271 22.6631 114 103 64
7.5207 3.08271 22.6631 114 103 64
8.50934 -3.15773 25.6423 12 20 18
7.22107 2.83926 21.7602 26 32 35
10.5206 4.55695 31.5712 134 122 96
7.13749 1.36984 21.4189 40 38 28
7.13749 1.36984 21.4189 40 38 28
9.23888 5.53878 27.7249 16 24 36
8.83524 -6.2782 26.5136 34 36 23
7.42881 3.12507 22.2931 36 39 30
8.12526 -3.67853 24.3831 23 26 23
9.43036 7.69307 28.2995 59 43 29
12.6919 -2.25272 37.9292 72 79 76
12.6919 -2.25272 37.9292 72 79 76
12.6919 -2.25272 37.9292 72 79 76
10.9439 6.08049 32.7054 138 119 95
10.1535 3.83303 30.3434 103 84 60
7.87771 5.71465 23.5423 255 232 185
7.87771 5.71465 23.5423 255 232 185
11.0765 7.75989 33.1019 104 118 110
11.0765 7.75989 33.1019 104 118 110
11.0765 7.75989 33.1019 104 118 110
10.3101 -0.0363175 30.6843 248 189 147
9.31573 4.00179 27.7249 136 96 108
13.3956 8.84857 39.8672 72 59 46
9.71004 0.566565 28.8985 104 68 29
10.2948 0.217618 30.5129 143 108 103
8.61107 2.79958 25.5225 117 99 125
8.61107 2.79958 25.5225 117 99 125
10.015 2.3921 29.6837 125 97 84
8.77509 3.10523 26.0086 142 116 89
7.74272 -3.17589 22.9488 51 53 47
10.4703 -1.62808 31.033 63 61 48
8.85329 5.36564 26.1331 37 40 59
7.77453 -4.89338 22.9488 39 93 50
12.4184 5.64657 36.6564 101 71 59
7.25623 1.34016 21.4189 155 98 64
7.25623 1.34016 21.4189 155 98 64
9.34514 -6.18779 27.5849 36 47 67
9.34514 -6.18779 27.5849 36 47 67
9.34514 -6.18779 27.5849 36 47 67
10.3952 -6.20263 30.6843 55 61 43
10.3952 -6.20263 30.6843 55 61 43
10.2797 0.384624 30.3434 255 244 192
10.0018 5.32521 29.5233 56 67 42
10.0018 5.32521 29.5233 56 67 42
9.48891 -5.23488 28.0093 21 23 24
12.1733 -2.43296 35.933 56 84 56
7.70974 4.83028 22.7575 32 30 48
10.2083 -0.201886 30.0099 248 172 139
7.3146 -2.85663 21.5032 43 34 26
9.88249 4.596 29.0522 37 21 12
7.28591 3.74465 21.4189 127 107 125
8.68181 3.57777 25.5225 29 27 23
8.68181 3.57777 25.5225 29 27 23
9.57684 -2.88171 28.1537 19 15 12
12.0353 8.01634 35.2375 230 195 137
9.97581 4.9849 29.2075 22 26 35
9.97581 4.9849 29.2075 22 26 35
9.32739 2.01149 27.309 87 105 84
9.37426 3.6953 27.4463 148 120 101
9.37426 3.6953 27.4463 148 120 101
10.9092 2.66249 31.9404 48 23 26
7.87121 2.78341 23.0456 137 115 90
14.1324 9.81455 41.3773 225 230 251
8.91927 -5.69002 26.0086 69 59 26
8.00447 -3.26253 23.3411 92 111 48
8.83513 2.57605 25.7633 82 69 64
7.93664 6.00269 23.1433 98 101 103
8.70656 6.80381 25.2862 107 76 61
9.12921 2.94505 26.5136 125 122 103
7.55268 5.6285 21.935 255 255 255
7.55268 5.6285 21.935 255 255 255
10.9338 -1.62194 31.7547 24 16 18
9.95035 4.57169 28.8985 34 24 17
9.0851 -1.82309 26.3856 42 44 37
8.17659 4.61244 23.747 32 18 13
7.86744 -3.74869 22.7575 79 135 54
7.86744 -3.74869 22.7575 79 135 54
9.53629 -5.04087 27.5849 159 208 161
9.53629 -5.04087 27.5849 159 208 161
7.77031 -3.60896 22.4766 45 35 19
10.9778 -1.84198 31.7547 88 97 60
10.9778 -1.84198 31.7547 88 97 60
8.50534 3.68753 24.6027 52 31 20
10.3747 -0.409844 30.0099 255 197 181
13.487 -5.7775 39.0129 73 99 56
8.8233 -5.83127 25.5225 61 44 31
8.6614 3.61629 25.0542 136 85 48
8.8233 -3.63819 25.5225 89 114 87
9.8343 -3.22713 28.4469 20 19 45
9.34746 -5.31579 27.0387 106 106 136
10.4162 -0.409844 30.0099 253 199 182
12.9846 4.98489 37.4097 38 32 31
7.43434 -5.0718 21.4189 27 36 39
10.0305 7.93599 28.8985 75 41 39
11.7749 5.50781 33.9243 129 85 61
10.532 -1.97039 30.3434 75 92 71
10.532 -1.97039 30.3434 75 92 71
7.46402 -3.23133 21.4189 100 105 113
7.46402 -3.23133 21.4189 100 105 113
11.0019 -1.48129 31.5712 18 13 17
12.8603 4.20148 36.9041 97 110 131
7.83262 -3.11055 22.4766 78 47 24
7.46402 1.36984 21.4189 138 98 67
7.46402 1.36984 21.4189 138 98 67
7.70577 5.21438 22.1126 48 30 33
12.8603 4.04804 36.9041 64 54 32
7.46402 5.46638 21.4189 39 57 85
7.46402 5.46638 21.4189 39 57 85
9.86179 -2.8182 28.2995 35 35 18
10.8761 -1.89692 31.2103 54 51 41
8.56904 3.77282 24.4924 114 133 109
10.0573 4.54762 28.7464 41 21 23
7.67428 5.5373 21.935 183 206 225
10.2187 -2.01807 29.2075 147 125 71
10.4421 5.38341 29.846 117 121 88
13.8471 9.93636 39.5783 239 224 193
7.49371 1.16205 21.4189 97 83 73
10.0047 3.45376 28.5959 134 100 75
7.79957 -3.5486 22.2931 100 149 88
11.1748 -1.67569 31.9404 75 95 51
9.7384 -0.570762 27.7249 21 25 33
14.5338 10.1013 41.3773 255 255 255
14.5338 10.1013 41.3773 255 255 255
10.2592 4.9849 29.2075 17 23 29
10.2592 4.9849 29.2075 17 23 29
10.4264 -0.487668 29.6837 249 186 144
10.4264 -0.487668 29.6837 249 186 144
10.5993 -6.85261 30.1757 241 205 182
7.52339 1.2511 21.4189 129 120 95
7.52339 1.2511 21.4189 129 120 95
8.19857 3.49842 23.3411 36 39 61
8.19857 3.49842 23.3411 36 39 61
8.19857 3.49842 23.3411 36 39 61
8.12909 -4.999 23.1433 167 255 219
9.17926 -4.95666 26.1331 245 179 255
8.60298 4.31594 24.4924 82 33 25
10.5248 0.0887679 29.846 239 169 137
7.55308 -2.81574 21.4189 31 34 21
9.63017 0.6111 27.309 44 33 17
7.76627 -4.26875 22.0234 83 95 112
8.63693 1.6343 24.4924 26 30 41
8.63693 1.6343 24.4924 26 30 41
10.2997 5.75401 29.2075 127 111 91
10.411 0.333311 29.5233 189 148 98
10.355 -1.90683 29.3646 51 59 34
11.5785 7.75761 32.7054 255 238 178
11.5785 7.75761 32.7054 255 238 178
10.3401 -6.5113 29.2075 43 56 79
8.05668 -3.74869 22.7575 119 120 86
8.19061 2.01686 23.0456 28 32 19
8.19061 2.01686 23.0456 28 32 19
8.19061 2.01686 23.0456 28 32 19
7.61245 5.64449 21.4189 186 206 195
7.82731 -4.66555 22.0234 56 79 43
8.15619 -3.87561 22.9488 31 40 21
8.26031 -4.47268 23.2417 216 225 255
8.188 -1.26757 22.9488 32 24 17
8.188 -1.26757 22.9488 32 24 17
10.6489 -0.283511 29.846 76 39 31
8.81785 5.72508 24.7141 189 192 155
8.81785 5.72508 24.7141 189 192 155
7.64213 -3.2907 21.4189 44 55 32
7.64213 -3.2907 21.4189 44 55 32
10.7074 -1.28327 30.0099 52 80 49
10.7074 -1.28327 30.0099 52 80 49
10.0324 0.549132 28.0093 99 72 56
11.7145 6.80573 32.7054 69 55 51
7.73246 -2.62856 21.5882 17 25 16
7.73246 -2.62856 21.5882 17 25 16
13.3083 8.96755 37.1552 41 34 33
10.6321 0.376262 29.6837 8 29 29
9.18457 4.58964 25.6423 35 50 42
11.3082 2.10665 31.5712 138 101 71
11.3082 2.10665 31.5712 138 101 71
13.1804 8.84718 36.6564 35 46 38
7.7015 1.19173 21.4189 83 69 64
10.7906 3.16704 30.0099 58 45 31
10.7906 3.16704 30.0099 58 45 31
10.7906 3.16704 30.0099 58 45 31
10.0198 -5.16955 27.8664 226 156 221
7.76238 1.08148 21.5882 142 136 105
7.91888 -4.78764 22.0234 74 71 34
7.91888 -4.78764 22.0234 74 71 34
7.7015 3.09158 21.4189 136 77 84
7.7015 3.09158 21.4189 136 77 84
7.7015 3.09158 21.4189 136 77 84
7.79319 -3.38996 21.6738 48 58 45
10.431 3.3301 28.8985 58 48 42
10.431 3.3301 28.8985 58 48 42
10.3217 -3.04586 28.5959 21 25 23
9.16955 2.32886 25.4038 25 40 36
9.95683 7.30765 27.5849 131 86 69
9.08504 -1.94837 25.1696 17 21 15
9.08504 -1.94837 25.1696 17 21 15
9.61684 6.17191 26.643 32 28 59
10.4865 7.53529 29.0522 255 255 244
10.4865 7.53529 29.0522 255 255 244
7.76087 -4.50779 21.4189 113 178 91
7.76087 -4.50779 21.4189 113 178 91
7.85326 -2.4888 21.6738 19 17 20
12.0672 2.86845 33.3037 119 86 61
9.11992 -2.43674 25.1696 14 16 14
8.01224 -3.33599 22.1126 108 156 136
9.6069 -5.32281 26.5136 42 72 41
11.2444 6.80179 31.033 104 91 71
10.0971 0.507709 27.8664 80 58 49
12.9843 3.12415 35.6981 119 96 83
8.41776 2.98765 23.1433 151 118 90
13.7006 9.50888 37.6677 185 221 180
12.7346 7.33415 35.0116 49 45 33
8.59997 -3.96029 23.6442 29 34 19
8.59997 -3.96029 23.6442 29 34 19
7.79056 1.10268 21.4189 147 124 107
10.6806 -1.29637 29.3646 96 131 49
8.63274 5.70662 23.6442 198 184 155
8.63274 5.70662 23.6442 198 184 155
8.07353 3.92722 22.1126 128 89 53
8.07353 3.92722 22.1126 128 89 53
8.07353 3.92722 22.1126 128 89 53
8.00868 -3.09639 21.935 28 20 14
8.00868 -3.09639 21.935 28 20 14
8.07353 -3.2747 22.1126 53 64 16
7.84993 1.01362 21.4189 79 106 73
10.5912 3.4903 28.8985 106 107 84
10.5912 3.4903 28.8985 106 107 84
12.2806 7.80866 33.508 192 166 108
8.40712 -1.99073 22.8528 16 19 18
10.2515 -1.15299 27.8664 104 146 87
10.2515 -1.15299 27.8664 104 146 87
10.097 7.04269 27.4463 25 24 37
9.61388 4.1342 26.1331 19 24 31
8.62361 2.5388 23.4412 98 83 76
9.99652 0.344439 27.1732 25 23 30
7.87961 -2.57826 21.4189 18 20 20
7.87961 -2.57826 21.4189 18 20 20
7.87961 -2.40015 21.4189 87 144 114
7.87961 -2.40015 21.4189 87 144 114
8.13254 -5.0013 22.0234 77 72 69
8.13254 -5.0013 22.0234 77 72 69
9.93532 -0.479314 26.9055 11 13 13
8.8073 1.65759 23.8507 165 101 58
8.26586 2.61048 22.3845 52 40 43
8.8073 5.52507 23.8507 71 84 66
12.6528 6.2992 34.1363 26 22 25
8.99751 5.3878 24.2747 14 24 36
8.68859 5.33276 23.4412 212 193 150
14.3577 -7.50816 38.7362 21 26 24
7.93898 2.29008 21.4189 158 99 70
8.57814 2.12163 23.1433 33 44 42
8.57814 2.12163 23.1433 33 44 42
7.93898 -2.72669 21.4189 23 30 16
7.93898 -2.72669 21.4189 23 30 16
12.8608 4.60629 34.5684 2 34 42
13.1097 7.67448 35.2375 91 84 68
7.96867 1.2511 21.4189 82 76 67
7.96867 1.2511 21.4189 82 76 67
9.32115 -1.66165 25.0542 20 25 16
8.12804 0.912782 21.8472 104 127 103
8.12804 0.912782 21.8472 104 127 103
9.67624 0.690139 26.0086 132 140 150
7.96867 -1.53929 21.4189 14 33 34
14.5684 3.03577 39.0129 48 49 31
14.5684 3.03577 39.0129 48 49 31
7.99835 2.17134 21.4189 28 45 33
7.99835 2.17134 21.4189 28 45 33
7.99835 -2.697 21.4189 36 44 22
7.99835 -2.697 21.4189 36 44 22
7.99835 -1.86582 21.4189 96 110 40
7.99835 -1.86582 21.4189 96 110 40
11.4583 2.2601 30.6843 78 54 39
11.5885 6.93082 31.033 31 30 26
15.5087 6.31644 41.3773 121 91 64
9.34771 -2.34536 24.9398 19 24 16
8.02804 -2.81574 21.4189 100 119 79
15.5087 6.37379 41.3773 127 100 76
9.74833 5.48427 26.0086 36 26 32
9.74833 5.48427 26.0086 36 26 32
9.22139 3.89211 24.6027 9 23 34
8.22148 3.65248 21.935 98 103 89
8.05772 1.31047 21.4189 166 141 126
10.8715 6.89466 28.8985 93 77 86
10.8715 6.89466 28.8985 93 77 86
9.42532 3.4774 25.0542 32 25 12
9.83119 -1.40724 26.1331 38 34 27
9.78438 4.94358 26.0086 40 39 43
8.05772 -4.83432 21.4189 105 71 89
11.9901 8.14823 31.7547 255 211 183
8.08741 -4.71558 21.4189 39 72 34
8.31568 -5.15391 22.0234 61 83 42
8.31568 -5.15391 22.0234 61 83 42
9.28959 2.76689 24.6027 52 45 19
9.28959 2.76689 24.6027 52 45 19
12.0602 4.25611 31.9404 160 113 85
8.08741 -2.72669 21.4189 122 118 55
8.08741 5.73354 21.4189 92 78 71
8.08741 -2.57826 21.4189 33 38 63
11.8522 7.92406 31.3897 89 44 57
8.48303 -2.32222 22.3845 18 19 15
9.53852 -4.77392 25.1696 36 35 26
8.11709 -2.96417 21.4189 45 81 57
8.31269 -3.8868 21.935 143 107 93
8.31269 -3.8868 21.935 143 107 93
8.11709 -1.80645 21.4189 69 48 31
12.1756 6.9528 32.1283 46 23 10
12.1756 6.9528 32.1283 46 23 10
8.11709 -1.30181 21.4189 25 39 29
8.11709 -1.59866 21.4189 117 111 68
8.58862 0.884051 22.6631 128 140 120
13.1004 3.16901 34.5684 132 102 81
8.14678 -1.59866 21.4189 111 118 166
8.34309 -4.13001 21.935 28 31 20
8.34309 -4.13001 21.935 28 31 20
8.14678 1.28079 21.4189 162 130 106
11.6709 6.47021 30.6843 131 97 82
8.62003 -4.54979 22.6631 198 243 243
8.62003 -4.54979 22.6631 198 243 243
13.0656 6.33882 34.351 29 21 20
8.14678 -1.86582 21.4189 45 52 31
9.27423 1.76218 24.3831 136 93 83
10.1213 -6.05773 26.5136 185 240 130
8.98706 0.363671 23.5423 24 22 22
13.8079 8.02817 36.1709 140 118 106
8.17646 -3.61724 21.4189 49 47 24
8.17646 -3.61724 21.4189 49 47 24
8.4756 -4.67271 22.2025 38 38 30
12.1221 6.82794 31.7547 7 16 20
15 7.57763 39.2936 61 62 51
8.33999 0.882504 21.8472 130 136 89
8.17646 -2.60795 21.4189 31 39 28
9.38371 4.07833 24.4924 124 89 90
9.64317 6.84222 25.1696 255 255 249
9.64317 6.84222 25.1696 255 255 249
8.43777 5.80381 22.0234 30 35 46
8.43777 5.80381 22.0234 30 35 46
8.20615 -2.81574 21.4189 13 34 25
8.27102 3.47505 21.5882 118 101 77
8.20615 -4.77495 21.4189 60 97 61
8.20615 -2.16267 21.4189 33 70 70
13.3767 8.49279 34.7886 151 164 168
9.29264 0.741762 24.1673 88 95 49
11.9326 7.36091 31.033 53 27 18
11.6674 -1.0452 30.3434 30 26 26
9.50288 0.655788 24.7141 160 141 117
8.26552 -0.826847 21.4189 115 99 42
8.26552 -0.826847 21.4189 115 99 42
8.26552 0.954255 21.4189 158 127 85
8.26552 -1.98456 21.4189 25 26 14
10.8088 6.37196 28.0093 153 127 99
12.9307 3.72196 33.508 85 58 65
11.3318 6.55819 29.3646 68 68 47
8.26552 -1.56897 21.4189 27 28 17
9.04595 -5.38825 23.4412 68 55 70
8.53323 -4.37797 22.1126 35 40 33
11.2112 5.24023 29.0522 115 116 103
9.66838 1.88013 25.0542 49 39 29
9.66838 1.88013 25.0542 49 39 29
9.66838 1.88013 25.0542 49 39 29
9.89534 -0.492349 25.6423 12 12 14
11.4961 2.84464 29.6837 23 22 32
11.4961 2.84464 29.6837 23 22 32
8.2952 -2.84543 21.4189 21 32 22
14.1965 8.99959 36.6564 202 189 139
14.1965 8.99959 36.6564 202 189 139
8.2952 -1.06433 21.4189 64 66 53
8.2952 -1.06433 21.4189 64 66 53
11.6866 3.47729 30.1757 170 151 123
11.6866 3.47729 30.1757 170 151 123
8.2952 -2.22204 21.4189 25 25 18
8.35766 0.00435108 21.5032 56 29 25
8.49139 5.57571 21.8472 255 189 150
8.91952 2.29463 22.9488 44 49 41
8.32489 -3.73598 21.4189 102 98 57
8.73599 5.82977 22.4766 200 162 97
8.73599 5.82977 22.4766 200 162 97
8.32489 -3.11259 21.4189 30 35 20
8.32489 -2.697 21.4189 89 162 171
8.35457 -1.89551 21.4189 123 164 100
10.0968 6.96504 25.8854 46 68 60
10.0968 6.96504 25.8854 46 68 60
13.3988 8.29075 34.351 87 70 57
8.35457 -3.61724 21.4189 32 39 18
8.35457 -1.68771 21.4189 116 126 94
9.59647 3.89211 24.6027 22 26 31
8.38426 0.123074 21.4189 115 117 84
8.38426 0.123074 21.4189 115 117 84
15.163 7.30909 38.7362 58 77 76
8.58629 5.4765 21.935 31 32 29
8.58629 5.4765 21.935 31 32 29
9.63057 -0.847463 24.6027 45 26 21
8.38426 -4.53747 21.4189 49 24 24
8.38426 -0.975272 21.4189 79 117 61
8.38426 -0.975272 21.4189 79 117 61
8.41394 -4.29999 21.4189 200 205 252
8.41394 -4.29999 21.4189 200 205 252
8.41394 -2.63763 21.4189 41 54 80
16.2542 4.42402 41.3773 144 119 74
8.41394 -2.42984 21.4189 66 66 49
8.41394 -2.42984 21.4189 66 66 49
8.41394 -1.06433 21.4189 119 105 75
8.41394 -2.54858 21.4189 174 157 104
8.41394 -2.54858 21.4189 174 157 104
8.41394 -2.40015 21.4189 75 48 57
8.41394 1.16205 21.4189 131 88 63
8.41394 -1.39086 21.4189 17 27 25
9.20839 -0.612527 23.4412 21 14 16
11.4736 2.75852 29.2075 114 93 74
14.5956 8.14364 37.1552 132 105 90
14.5956 8.14364 37.1552 132 105 90
14.9523 7.05168 37.9292 21 24 24
12.893 4.72067 32.7054 21 24 24
12.893 4.72067 32.7054 21 24 24
8.44363 0.92457 21.4189 14 15 16
8.44363 1.07299 21.4189 114 114 92
8.44363 -0.055036 21.4189 34 43 50
8.44363 -0.055036 21.4189 34 43 50
8.44363 0.182444 21.4189 60 50 38
16.3116 4.59606 41.3773 55 46 61
10.0032 1.89754 25.2862 113 98 82
8.47331 -3.52818 21.4189 89 99 60
8.47331 -3.52818 21.4189 89 99 60
11.1193 5.59558 28.0093 49 50 46
14.6504 5.12212 36.9041 131 100 75
8.503 -2.25173 21.4189 17 29 30
8.503 0.568349 21.4189 29 32 58
8.503 -4.27031 21.4189 28 38 49
8.503 -0.678421 21.4189 64 61 54
8.503 -0.678421 21.4189 64 61 54
8.53268 -0.292516 21.4189 87 100 103
10.2152 5.90456 25.6423 13 19 26
8.66866 -4.51931 21.7602 22 25 22
8.56628 -1.78376 21.5032 22 27 20
8.56628 -1.78376 21.5032 22 27 20
8.53268 -3.32039 21.4189 25 64 38
13.1074 5.15951 32.9025 43 34 32
8.53268 0.716774 21.4189 93 109 104
8.56237 -3.26102 21.4189 21 25 20
8.56237 -1.09401 21.4189 26 25 19
8.63005 -3.91511 21.5882 15 21 13
8.56237 -2.13299 21.4189 29 29 29
10.2507 1.99534 25.6423 53 31 30
8.56237 -4.0922 21.4189 24 67 27
8.56237 0.627719 21.4189 97 85 56
8.56237 -0.470626 21.4189 39 34 24
8.56237 -0.470626 21.4189 39 34 24
14.2271 8.55993 35.4663 102 83 77
14.2271 8.55993 35.4663 102 83 77
16.6556 11.0188 41.3773 84 60 28
16.6556 11.0188 41.3773 84 60 28
8.65568 -3.57188 21.5032 27 26 19
15.8713 5.61714 39.2936 143 112 83
8.82445 -3.93181 21.8472 16 19 15
10.3089 5.91234 25.5225 114 91 77
8.65142 -3.17196 21.4189 118 103 78
8.65142 -3.17196 21.4189 118 103 78
8.65142 -3.23133 21.4189 100 146 102
8.65142 -0.619051 21.4189 123 96 60
9.89288 -4.27208 24.4924 114 172 41
9.89288 -4.27208 24.4924 114 172 41
8.68548 1.37524 21.5032 89 76 59
8.68548 1.37524 21.5032 89 76 59
8.71981 -4.60326 21.5882 25 34 29
8.71981 -4.60326 21.5882 25 34 29
8.71981 -4.60326 21.5882 25 34 29
8.65142 -0.440941 21.4189 126 92 52
8.65142 -0.440941 21.4189 126 92 52
8.65142 3.86339 21.4189 99 116 94
15.6462 8.7586 38.7362 125 106 92
15.6462 8.7586 38.7362 125 106 92
8.75442 -4.92191 21.6738 22 24 20
8.68111 -2.84543 21.4189 22 28 25
15.4803 7.47154 38.1945 200 140 102
10.0622 5.85432 24.8264 38 22 12
10.0622 5.85432 24.8264 38 22 12
8.68111 -2.57826 21.4189 23 19 15
11.9015 2.93614 29.3646 34 37 31
9.97154 5.15372 24.6027 114 113 88
10.5413 4.22266 26.0086 29 26 31
8.68111 5.6148 21.4189 191 167 164
8.71079 1.04331 21.4189 116 110 67
14.7103 5.52166 36.1709 72 69 59
12.072 6.01238 29.6837 30 27 30
12.072 6.01238 29.6837 30 27 30
8.88501 -1.35812 21.8472 19 23 19
8.88501 -1.35812 21.8472 19 23 19
11.391 3.46055 28.0093 219 176 118
11.391 3.46055 28.0093 219 176 118
9.21681 -0.84347 22.6631 13 12 14
8.81449 -3.63026 21.6738 26 35 18
9.37237 3.93323 23.0456 42 29 30
8.91529 5.36375 21.8472 41 24 15
10.7155 2.5528 26.2587 100 88 73
9.56576 0.36211 23.4412 17 15 21
10.0397 2.22133 24.6027 123 94 53
8.98718 -3.74986 22.0234 18 22 14
10.8723 4.95338 26.643 28 19 24
10.8723 4.95338 26.643 28 19 24
13.5904 -6.27056 33.3037 136 155 127
11.5278 6.56088 28.1537 28 23 40
11.5278 6.56088 28.1537 28 23 40
9.12813 3.71211 22.2931 104 87 65
9.12813 3.71211 22.2931 104 87 65
8.77016 -2.45952 21.4189 33 44 19
8.77016 -4.21094 21.4189 255 210 94
9.27963 4.05641 22.6631 28 20 27
9.01771 0.828575 22.0234 106 129 78
8.77016 -4.92338 21.4189 83 65 39
10.4018 1.80074 25.4038 132 111 104
8.77016 0.954255 21.4189 19 25 20
10.9462 2.07321 26.643 147 98 74
8.79985 5.37732 21.4189 189 160 135
8.79985 0.627719 21.4189 135 131 95
8.79985 -1.98456 21.4189 20 20 14
16.2606 5.76755 39.5783 148 109 87
16.2606 5.76755 39.5783 148 109 87
11.2762 3.31491 27.4463 197 163 92
11.2762 3.31491 27.4463 197 163 92
12.1704 2.95201 29.5233 137 91 68
15.213 -6.43699 36.9041 140 180 96
8.82953 1.31047 21.4189 156 132 125
10.0515 1.59321 24.3831 92 77 68
17.1144 -3.48974 41.3773 20 43 24
12.9833 7.228 31.3897 133 106 84
8.8941 -4.40633 21.5032 26 24 17
9.64541 3.99892 23.2417 32 21 20
8.8889 -1.98456 21.4189 20 28 21
8.8889 1.22142 21.4189 74 93 46
9.03056 -2.64951 21.7602 32 30 21
9.03056 -2.64951 21.7602 32 30 21
10.7425 2.40888 25.8854 96 99 85
10.5427 4.72299 25.4038 39 19 19
10.4938 0.670968 25.2862 104 135 111
8.8889 1.07299 21.4189 115 101 81
16.3614 8.0133 39.2936 22 15 12
10.8815 6.34354 26.1331 37 26 27
9.80276 -4.6284 23.5423 58 59 44
9.80276 -4.6284 23.5423 58 59 44
8.91859 -0.826847 21.4189 34 32 17
9.32066 2.82765 22.3845 191 124 83
11.907 6.70357 28.5959 38 24 24
9.55563 6.2703 22.9488 172 140 97
11.3146 7.2739 27.1732 24 23 43
11.3146 7.2739 27.1732 24 23 43
11.3146 7.2739 27.1732 24 23 43
9.96423 6.25229 23.8507 94 51 44
8.94827 0.954255 21.4189 35 54 54
9.39016 -1.11689 22.4766 18 18 12
10.467 1.67179 25.0542 85 78 68
10.9702 -5.9267 26.2587 22 19 11
8.94827 -1.45023 21.4189 81 65 73
17.2864 8.61028 41.3773 74 65 58
10.7127 0.64488 25.6423 197 176 144
17.2864 -3.54708 41.3773 131 191 178
17.2864 -3.54708 41.3773 131 191 178
9.30642 2.62003 22.2025 147 108 87
16.3527 7.63164 39.0129 135 95 61
11.6212 -6.33448 27.7249 24 22 12
11.7404 2.83945 28.0093 109 87 78
8.97796 5.28827 21.4189 95 87 68
9.86801 0.787834 23.5423 80 99 56
9.91073 6.09985 23.6442 157 146 113
9.3827 2.7656 22.3845 65 54 66
9.3827 2.7656 22.3845 65 54 66
9.30642 -1.71869 22.2025 10 25 20
8.97796 -4.15157 21.4189 85 120 64
8.97796 -3.11259 21.4189 21 19 17
8.97796 -3.11259 21.4189 21 19 17
9.12103 -2.89077 21.7602 25 29 33
9.12103 -2.89077 21.7602 25 29 33
8.97796 1.31047 21.4189 125 147 160
9.30642 3.88165 22.2025 196 152 110
16.0096 6.0423 38.1945 91 77 51
16.1757 5.81831 38.4634 39 17 14
17.4011 8.95436 41.3773 125 116 101
9.00764 -0.886217 21.4189 86 99 53
9.00764 -0.886217 21.4189 86 99 53
9.00764 1.90418 21.4189 108 77 76
13.2772 3.50682 31.5712 82 123 100
13.2444 5.66186 31.3897 185 115 83
13.3984 7.66412 31.7547 32 52 48
16.5793 8.0133 39.2936 21 15 13
16.5793 5.50822 39.2936 128 102 82
13.3209 7.40105 31.5712 111 106 97
16.3441 8.22175 38.7362 17 26 32
14.9644 -6.33366 35.4663 34 38 29
14.9644 -6.33366 35.4663 34 38 29
10.5575 6.08844 24.9398 27 20 13
10.3218 -2.39438 24.3831 29 31 18
10.3218 -2.39438 24.3831 29 31 18
10.9578 -2.2549 25.8854 50 74 53
12.4978 7.04373 29.5233 26 18 16
9.06701 -4.24062 21.4189 133 190 75
10.1739 -4.1452 23.9553 157 212 181
10.1739 -4.1452 23.9553 157 212 181
12.5387 8.02574 29.5233 125 111 103
10.4489 2.6305 24.6027 25 16 23
10.4489 2.6305 24.6027 25 16 23
10.4489 2.6305 24.6027 25 16 23
11.2061 6.98992 26.3856 188 205 181
11.2061 6.98992 26.3856 188 205 181
9.53782 -1.60868 22.3845 13 16 16
9.38398 4.73551 22.0234 23 33 37
10.8243 -2.95232 25.4038 124 133 92
9.15607 0.98394 21.4189 67 55 32
9.15607 0.98394 21.4189 67 55 32
10.7101 6.53305 25.0542 46 24 14
10.5647 -0.337519 24.7141 13 14 14
9.15607 3.68528 21.4189 44 32 35
11.0132 -5.74346 25.7633 16 25 17
15.3605 -3.17996 35.933 129 139 93
15.2601 5.64738 35.6981 22 31 24
10.3769 -4.26775 24.2747 93 67 30
10.3769 -4.26775 24.2747 93 67 30
10.8947 0.674089 25.4038 148 143 134
10.6471 2.86086 24.8264 57 35 30
15.8268 9.87874 36.9041 43 27 36
13.3089 1.68365 31.033 130 164 91
9.18575 3.98213 21.4189 45 27 17
15.7206 5.54497 36.6564 130 101 78
10.3645 -2.97609 24.1673 16 23 17
10.3645 -2.97609 24.1673 16 23 17
10.3645 -2.97609 24.1673 16 23 17
10.5039 -5.22254 24.4924 21 18 14
10.5039 -5.22254 24.4924 21 18 14
10.2287 -1.87933 23.8507 23 38 25
9.25837 -3.49623 21.5882 25 26 19
11.3524 -6.1016 26.3856 89 109 71
10.1729 -4.68121 23.6442 41 36 20
12.9831 6.36296 30.1757 26 20 20
12.9831 6.36296 30.1757 26 20 20
9.21544 1.01362 21.4189 45 68 55
11.3342 -5.9267 26.2587 17 23 17
13.6272 -4.89421 31.5712 99 125 112
11.7875 2.27643 27.309 21 32 30
11.7875 2.27643 27.309 21 32 30
9.28152 -5.06197 21.5032 10 27 36
12.4736 3.04974 28.8985 112 98 73
12.4736 3.04974 28.8985 112 98 73
10.9494 2.94888 25.2862 17 35 46
17.9172 -7.27458 41.3773 118 167 104
17.9172 -7.27458 41.3773 118 167 104
17.0149 -4.18533 39.2936 131 224 197
11.0004 3.10343 25.4038 177 131 96
9.27481 3.80402 21.4189 140 83 48
9.85448 4.32563 22.7575 193 177 141
10.5451 -2.75382 24.2747 16 41 32
13.3295 7.40578 30.6843 128 108 88
9.30449 0.954255 21.4189 41 57 46
11.0356 -1.72004 25.4038 16 17 13
13.7945 -5.45079 31.7547 33 31 16
12.0439 5.65405 27.7249 18 16 21
9.30449 0.954255 21.4189 41 57 46
9.30449 0.954255 21.4189 41 57 46
12.1053 -3.70196 27.8664 51 40 26
16.881 9.77863 38.7362 156 137 84
10.394 6.45062 23.8507 136 157 181
17.0015 -4.04729 39.0129 68 47 21
15.8681 2.98478 36.4121 134 94 68
13.8385 -4.87866 31.7547 41 48 25
14.2981 2.86225 32.7054 66 47 44
18.0893 6.66052 41.3773 49 24 17
9.90782 4.3705 22.6631 83 39 20
13.567 -2.48827 31.033 17 27 22
16.5818 -3.82973 37.9292 63 34 20
11.9389 -5.48249 27.309 21 25 39
9.65869 -4.2077 22.0234 23 26 18
11.1412 4.19487 25.4038 82 70 58
10.193 2.74267 23.2417 72 43 26
11.1932 5.24027 25.5225 201 129 38
11.1932 5.24027 25.5225 201 129 38
11.1932 5.24027 25.5225 201 129 38
10.9879 0.630089 25.0542 190 168 138
10.9224 0.693176 24.8264 90 84 38
10.9224 0.693176 24.8264 90 84 38
10.5856 5.07355 24.0608 44 36 29
16.127 -2.38033 36.6564 141 192 136
16.127 -2.38033 36.6564 141 192 136
10.1389 -4.46688 23.0456 31 38 22
9.46033 0.987813 21.5032 52 49 31
13.731 -3.84341 31.2103 39 62 56
14.2185 2.47004 32.3184 114 137 116
11.8744 -5.58792 26.9055 18 17 12
14.3482 3.52107 32.5108 124 97 82
13.6186 -2.38868 30.8577 20 21 14
12.66 -3.87813 28.5959 44 57 38
12.66 -3.87813 28.5959 44 57 38
9.86965 -3.33233 22.2931 95 120 145
13.8969 4.92229 31.3897 139 106 79
9.95088 3.80496 22.4766 21 22 26
16.9095 3.23675 38.1945 126 104 77
16.9095 3.23675 38.1945 126 104 77
10.4678 2.36417 23.6442 94 97 92
13.6614 -2.43145 30.8577 20 17 16
10.7806 -1.34081 24.2747 12 18 20
14.2684 -5.29227 32.1283 132 106 90
16.5009 5.46593 37.1552 111 103 73
10.2347 4.15681 23.0456 93 81 71
11.2298 1.7924 25.2862 93 82 71
9.54197 -3.08291 21.4189 197 168 101
10.9112 3.05998 24.4924 132 100 81
9.54197 5.58512 21.4189 246 209 179
9.54197 5.58512 21.4189 246 209 179
15.4 -5.88586 34.5684 23 24 14
12.6729 -2.04437 28.4469 26 25 11
12.6729 -2.04437 28.4469 26 25 11
10.8625 -1.44817 24.3831 23 17 15
10.8625 -1.44817 24.3831 23 17 15
10.5791 -3.71421 23.747 50 41 17
15.7469 -3.8998 35.2375 27 34 19
14.4424 2.47004 32.3184 162 101 75
10.2986 -3.09348 23.0456 38 46 29
11.7912 -4.78513 26.3856 41 37 26
9.96234 1.0241 22.2931 51 49 33
11.6227 2.27617 26.0086 47 38 33
11.6227 2.27617 26.0086 47 38 33
10.2986 -4.97791 23.0456 21 17 11
14.7491 -5.4654 32.9025 103 114 88
14.4872 7.26268 32.3184 18 21 24
9.87235 1.10328 22.0234 94 126 82
12.886 -5.49216 28.7464 30 25 9
12.4281 -3.37577 27.7249 31 39 47
11.9431 0.263868 26.643 56 61 84
10.8815 -3.69582 24.2747 125 221 137
9.60134 2.37914 21.4189 49 25 30
10.9639 -3.61094 24.3831 50 55 25
12.7912 -1.92609 28.4469 171 145 94
12.7912 -1.92609 28.4469 171 145 94
12.7912 -1.92609 28.4469 171 145 94
12.4666 -3.56789 27.7249 21 28 24
9.63103 -2.48921 21.4189 213 227 173
12.7249 -2.22988 28.2995 174 194 145
12.7249 -2.22988 28.2995 174 194 145
10.9152 3.03278 24.2747 59 46 32
10.5858 -2.18131 23.5423 50 53 22
10.7245 -2.11072 23.8507 103 173 63
11.0968 0.618736 24.6027 197 171 161
11.6753 -4.69442 25.8854 51 66 48
13.9971 -7.30534 31.033 18 19 14
18.6627 6.8899 41.3773 19 28 29
18.6627 6.8899 41.3773 19 28 29
16.2071 5.38573 35.933 121 98 81
16.2071 5.38573 35.933 121 98 81
13.503 7.78254 29.846 20 23 26
11.7111 5.38653 25.8854 54 51 43
11.7111 5.38653 25.8854 54 51 43
14.0401 8.47916 31.033 29 41 43
10.0859 3.89749 22.2931 123 144 95
13.6522 -6.55986 30.1757 57 94 40
15.9423 -3.75329 35.2375 26 28 18
9.72008 3.12126 21.4189 62 44 33
9.72008 3.12126 21.4189 62 44 33
10.6379 4.74798 23.4412 72 36 26
12.8426 4.47694 28.2995 135 98 69
12.0321 0.483063 26.5136 33 33 34
10.1583 1.0283 22.3845 46 51 35
10.1583 1.0283 22.3845 46 51 35
11.1149 0.717796 24.4924 109 97 83
11.4751 -5.11143 25.2862 29 22 13
10.8095 0.794685 23.747 150 124 82
12.7497 -2.4011 28.0093 16 19 17
12.7497 -2.4011 28.0093 16 19 17
10.6703 4.35812 23.4412 18 22 28
14.2885 1.57249 31.3897 127 110 73
17.0287 -1.80708 37.4097 46 64 53
17.0287 -1.80708 37.4097 46 64 53
13.2951 3.24428 29.2075 110 90 75
13.2951 3.24428 29.2075 110 90 75
16.6858 9.71083 36.6564 109 87 53
12.0472 -4.85827 26.3856 34 54 72
14.756 -2.32259 32.3184 22 32 20
9.97504 5.12152 21.8472 112 97 94
13.702 -5.15129 30.0099 26 26 30
12.7233 5.45117 27.8664 49 77 69
10.0555 5.10178 22.0234 50 48 42
12.8935 3.47838 28.1537 46 49 43
12.8935 3.47838 28.1537 46 49 43
16.2424 -3.72851 35.4663 148 222 205
10.379 -0.906289 22.6631 20 21 18
14.2933 -3.41085 31.2103 34 37 16
14.2933 -3.41085 31.2103 34 37 16
11.9111 3.97033 26.0086 120 98 75
11.9111 3.97033 26.0086 120 98 75
15.4403 4.44583 33.7149 72 48 24
15.4403 4.44583 33.7149 72 48 24
13.1649 -4.85471 28.7464 30 25 13
12.1424 0.409571 26.5136 30 24 27
14.8889 7.30591 32.5108 22 15 18
14.8889 7.30591 32.5108 22 15 18
11.6693 -2.8819 25.4038 163 215 159
12.5445 -6.16376 27.309 12 20 19
12.1791 5.26005 26.5136 154 115 80
12.8662 -5.19606 28.0093 40 67 37
11.3525 0.621536 24.7141 195 169 156
16.952 9.77645 36.9041 45 36 43
16.952 9.77645 36.9041 45 36 43
15.7792 8.81444 34.351 117 110 87
11.4562 -3.24404 24.9398 43 21 11
11.4562 -3.24404 24.9398 43 21 11
16.6654 -3.70233 36.1709 60 30 22
13.5294 3.66869 29.3646 64 58 45
11.268 2.43805 24.3831 140 110 119
14.6746 2.77904 31.7547 130 95 68
14.6746 2.77904 31.7547 130 95 68
12.0767 0.367474 26.1331 215 152 93
12.0767 0.367474 26.1331 215 152 93
15.6773 -6.85757 33.9243 25 26 24
16.2841 -4.33933 35.2375 21 23 17
15.024 7.30591 32.5108 27 15 16
15.024 7.30591 32.5108 27 15 16
15.2972 6.97998 33.1019 133 82 83
12.6202 1.89795 27.309 100 129 114
12.6202 1.89795 27.309 100 129 114
14.18 5.02431 30.6843 137 107 80
11.268 1.93115 24.3831 128 119 94
12.0767 -4.55825 26.1331 24 45 33
12.1712 0.514811 26.2587 54 31 26
12.5951 -2.36709 27.1732 27 17 9
15.2507 -7.10702 32.9025 16 21 23
12.471 4.85302 26.9055 81 65 54
10.2911 0.866082 22.2025 73 83 50
11.1525 5.64045 24.0608 49 40 40
11.1035 0.735255 23.9553 96 77 49
12.447 7.31535 26.7736 53 44 36
14.6773 4.29441 31.5712 43 43 39
10.9447 0.820462 23.5423 150 147 129
10.5799 1.04544 22.7575 55 66 42
9.95756 -3.67661 21.4189 70 128 86
12.5083 4.85302 26.9055 77 65 54
12.5083 4.85302 26.9055 77 65 54
11.1367 4.8853 23.9553 26 21 12
14.849 3.63637 31.9404 114 94 77
16.7051 5.58493 35.933 114 98 76
10.3949 -1.60212 22.2931 164 184 162
16.4306 5.0373 35.2375 153 135 114
11.0728 -4.17497 23.747 36 39 24
11.0728 -4.17497 23.747 36 39 24
10.8835 4.04836 23.3411 58 30 14
12.9936 6.37807 27.8664 62 66 71
12.9936 6.37807 27.8664 62 66 71
16.1187 5.08539 34.5684 23 32 45
9.98725 -4.32968 21.4189 95 163 113
12.1854 0.258818 26.1331 26 29 32
13.7662 -4.04483 29.5233 43 41 34
13.7662 -4.04483 29.5233 43 41 34
10.4375 -0.895146 22.3845 16 21 15
11.7362 -2.26232 25.1696 29 28 13
11.7362 -2.26232 25.1696 29 28 13
13.0322 2.55461 27.8664 26 24 30
14.5132 5.76956 31.033 26 21 21
12.6451 -1.56842 27.0387 24 34 19
12.1634 -2.84238 26.0086 21 34 24
10.6875 -3.8594 22.8528 99 106 60
12.7081 -3.15795 27.1732 19 30 24
14.0347 -6.19108 30.0099 28 20 21
12.0487 -0.816026 25.7633 55 70 52
11.54 -2.07498 24.6027 65 92 34
11.2364 0.735255 23.9553 94 111 66
16.7444 5.0042 35.6981 74 50 40
12.8738 7.23289 27.4463 49 31 19
11.8606 0.635923 25.2862 188 167 160
10.6302 1.0411 22.6631 61 72 38
13.7404 -2.01807 29.2075 23 25 23
14.3545 -5.53365 30.5129 137 83 89
14.3545 -5.53365 30.5129 137 83 89
11.5741 5.11963 24.6027 131 131 111
12.4128 0.371024 26.3856 233 174 122
10.796 -1.01313 22.9488 23 21 16
11.4198 4.74858 24.2747 195 139 102
11.4198 4.74858 24.2747 195 139 102
10.5306 -1.7638 22.3845 22 26 27
12.821 -3.83583 27.1732 11 21 23
12.5709 6.31961 26.643 40 34 22
10.3912 0.859098 22.0234 92 91 39
10.6931 5.09292 22.6631 28 14 24
10.6931 5.09292 22.6631 28 14 24
12.4494 -3.32239 26.3856 25 22 10
10.7376 1.86548 22.7575 124 119 57
11.8757 -0.76234 25.1696 65 67 37
12.5466 0.483063 26.5136 145 113 110
16.2553 -5.65841 34.351 29 28 13
15.2935 4.93355 32.3184 74 52 51
15.6642 5.78718 33.1019 36 43 43
13.9708 -6.21344 29.5233 9 11 9
13.3227 7.4193 28.1537 119 103 83
12.1343 -0.350195 25.6423 105 67 50
12.6696 7.20403 26.7736 11 23 23
12.6696 7.20403 26.7736 11 23 23
19.5803 3.73587 41.3773 151 97 69
19.5803 3.73587 41.3773 151 97 69
14.9836 -5.63806 31.5712 16 19 17
13.2253 -3.16127 27.8664 87 85 60
12.8964 -1.68921 27.1732 25 29 24
12.8964 -1.68921 27.1732 25 29 24
12.8964 -1.68921 27.1732 25 29 24
18.3842 4.57112 38.7362 28 33 29
12.321 0.184614 25.8854 190 205 165
12.9987 3.10909 27.309 102 81 62
12.4987 4.91833 26.2587 131 98 74
12.4987 4.91833 26.2587 131 98 74
10.195 -1.80645 21.4189 85 58 46
12.321 0.041113 25.8854 50 69 58
11.4526 -4.66366 24.0608 201 167 125
11.2543 3.44555 23.6442 112 51 62
11.3032 0.728861 23.747 95 97 68
12.9987 -3.21159 27.309 21 25 29
12.321 0.184614 25.8854 190 205 165
13.064 4.64626 27.4463 136 107 78
13.5797 -3.03 28.4469 11 19 13
12.4751 0.367474 26.1331 201 177 163
11.0479 6.32344 23.1433 109 106 80
15.5197 -5.62562 32.5108 11 20 19
14.0178 6.4768 29.3646 95 79 64
15.5197 -5.62562 32.5108 11 20 19
10.8638 -3.68561 22.7575 176 141 84
10.8638 -3.68561 22.7575 176 141 84
15.1588 3.9673 31.7547 57 42 45
12.3569 -0.748143 25.8854 86 129 54
12.3569 -0.748143 25.8854 86 129 54
12.3569 -0.748143 25.8854 86 129 54
12.3569 -0.748143 25.8854 86 129 54
15.5197 4.91786 32.5108 204 165 142
15.5197 4.91786 32.5108 204 165 142
11.7259 4.48566 24.4924 22 22 19
14.6082 -5.82967 30.5129 12 19 10
15.6579 6.98704 32.7054 53 48 41
12.6936 -5.76376 26.5136 12 14 10
12.1059 -5.04134 25.2862 14 20 31
12.1622 3.49071 25.4038 67 40 26
12.1622 3.49071 25.4038 67 40 26
12.2764 0.680418 25.6423 204 181 149
10.3246 0.92821 21.5032 71 80 39
12.5476 0.295036 26.1331 157 127 113
10.3246 2.2991 21.5032 118 95 64
10.3246 2.2991 21.5032 118 95 64
13.4484 -0.576616 28.0093 27 30 23
11.4517 3.80619 23.8507 118 102 77
11.4517 3.80619 23.8507 118 102 77
12.3119 6.8641 25.6423 126 102 62
10.5319 3.16607 21.935 136 125 85
14.409 -1.44964 30.0099 15 21 17
11.9005 -0.0292512 24.7141 201 160 146
16.7517 -5.24834 34.7886 14 16 11
11.586 -5.13051 24.0608 59 101 81
12.5838 0.403692 26.1331 208 170 139
11.8469 4.57406 24.6027 107 85 58
10.9584 0.824654 22.7575 157 147 112
17.078 4.18525 35.4663 107 88 75
17.078 4.18525 35.4663 107 88 75
10.3138 1.78544 21.4189 121 140 107
10.3138 1.78544 21.4189 121 140 107
16.541 -0.326306 34.351 36 23 17
12.6807 -1.05007 26.2587 80 71 44
17.3525 7.02915 35.933 118 112 83
11.3689 4.76844 23.5423 33 33 37
15.9854 -1.7825 33.1019 17 20 17
12.303 -1.93129 25.4038 25 20 9
12.303 -1.93129 25.4038 25 20 9
17.4023 4.88772 35.933 67 52 42
17.6344 -5.29141 36.4121 16 19 16
11.5007 1.84786 23.747 88 73 59
12.6925 -0.755302 26.1331 39 66 20
14.1102 2.05936 29.0522 139 143 107
13.6037 5.05212 28.0093 40 26 24
13.6037 5.05212 28.0093 40 26 24
13.3976 5.70196 27.5849 92 117 79
20.0964 6.54582 41.3773 67 46 54
