ply
format ascii 1.0
element vertex 1365
property float x
property float y
property float z
property uchar red
property uchar green
property uchar blue
end_header
21.7167 -8.25627 2.63958 75 48 57
21.7694 -8.25367 -0.922235 131 88 63
21.7316 -8.25553 1.6304 17 27 25
23.7712 -9.03418 0.881603 21 14 16
29.6037 -11.2534 -2.40509 114 93 74
37.6535 -14.3117 -7.67385 132 105 90
37.6535 -14.3117 -7.67385 132 105 90
38.4139 -14.6633 -6.57077 21 24 24
33.1409 -12.6451 -4.3161 21 24 24
33.1409 -12.6451 -4.3161 21 24 24
21.7661 -8.28353 -0.684799 14 15 16
21.7683 -8.28342 -0.833208 114 114 92
21.7516 -8.28424 0.294699 34 43 50
21.7516 -8.28424 0.294699 34 43 50
21.7551 -8.28407 0.0572445 60 50 38
41.8355 -15.9984 -4.0652 55 46 61
25.659 -9.81327 -1.60136 113 98 82
21.7004 -8.31646 3.76745 89 99 60
21.7004 -8.31646 3.76745 89 99 60
28.4449 -10.9061 -5.25936 49 50 46
37.3581 -14.3706 -4.65641 131 100 75
21.7195 -8.34521 2.49111 17 29 30
21.7613 -8.34316 -0.328655 29 32 58
21.6897 -8.34668 4.50947 28 38 49
21.7428 -8.34407 0.917979 64 61 54
21.7428 -8.34407 0.917979 64 61 54
21.7488 -8.37347 0.532098 87 100 103
26.076 -10.0196 -5.6028 13 19 26
22.0285 -8.50996 4.7634 22 25 22
21.8113 -8.40751 2.02441 22 27 20
21.8113 -8.40751 2.02441 22 27 20
21.7039 -8.37567 3.55964 25 64 38
33.346 -12.8577 -4.75211 43 34 32
21.7637 -8.37274 -0.477082 93 109 104
21.705 -8.40532 3.50026 21 25 20
21.7371 -8.40374 1.33349 26 25 19
21.8652 -8.4722 4.15674 15 21 13
21.7217 -8.40449 2.37235 29 29 29
26.0184 -10.058 -1.69403 53 31 30
21.6927 -8.40592 4.33134 24 67 27
21.7626 -8.40248 -0.388055 97 85 56
21.7463 -8.40328 0.71017 39 34 24
21.7463 -8.40328 0.71017 39 34 24
35.9682 -13.9556 -8.11488 102 83 77
35.9682 -13.9556 -8.11488 102 83 77
41.9331 -16.3378 -10.4875 84 60 28
41.9331 -16.3378 -10.4875 84 60 28
21.7855 -8.49822 3.81227 27 26 19
39.7638 -15.5731 -5.11675 143 112 83
22.1254 -8.66466 4.17716 16 19 15
25.957 -10.1143 -5.61241 114 91 77
21.707 -8.4943 3.41115 118 103 78
21.707 -8.4943 3.41115 118 103 78
21.7062 -8.49435 3.47052 100 146 102
21.7448 -8.49244 0.858524 123 96 60
24.7732 -9.7134 4.5559 114 172 41
24.7732 -9.7134 4.5559 114 172 41
21.8589 -8.52442 -1.13432 89 76 59
21.8589 -8.52442 -1.13432 89 76 59
21.8557 -8.56246 4.84476 25 34 29
21.8557 -8.56246 4.84476 25 34 29
21.8557 -8.56246 4.84476 25 34 29
21.7475 -8.49232 0.680433 126 92 52
21.7475 -8.49232 0.680433 126 92 52
21.8112 -8.48918 -3.62342 99 116 94
39.2513 -15.3499 -8.26599 125 106 92
39.2513 -15.3499 -8.26599 125 106 92
21.9369 -8.59665 5.16463 22 24 20
21.7121 -8.52375 3.08464 22 28 25
38.6893 -15.189 -6.98698 200 140 102
25.2584 -9.87282 -5.56455 38 22 12
25.2584 -9.87282 -5.56455 38 22 12
21.716 -8.52355 2.8175 23 19 15
29.7665 -11.6801 -2.58063 34 37 31
25.0237 -9.78437 -4.86729 114 113 88
26.4199 -10.3443 -3.91585 29 26 31
21.8373 -8.51759 -5.37466 191 167 164
21.7699 -8.5506 -0.803691 116 110 67
36.6314 -14.4357 -5.0668 72 69 59
30.1325 -11.8459 -5.65191 30 27 30
30.1325 -11.8459 -5.65191 30 27 30
22.164 -8.72334 1.60371 19 23 19
22.164 -8.72334 1.60371 19 23 19
28.4154 -11.1794 -3.12473 219 176 118
28.4154 -11.1794 -3.12473 219 176 118
22.9898 -9.04862 1.10099 13 12 14
21.9564 -8.65578 3.87308 26 35 18
23.4442 -9.19782 -3.66962 42 29 30
22.2637 -8.74872 -5.11744 41 24 15
26.6465 -10.5177 -2.24259 100 88 73
23.7883 -9.39082 -0.0931471 17 15 21
24.9808 -9.8547 -1.93525 123 94 53
22.3055 -8.82593 3.99773 18 22 14
27.0674 -10.6699 -4.63731 28 19 24
27.0674 -10.6699 -4.63731 28 19 24
33.5816 -13.346 6.68235 136 155 127
28.6066 -11.3128 -6.22267 28 23 40
28.6066 -11.3128 -6.22267 28 23 40
22.6866 -8.95941 -3.45951 104 87 65
22.6866 -8.95941 -3.45951 104 87 65
21.7185 -8.61252 2.69872 33 44 19
21.6925 -8.6138 4.44994 255 210 94
23.0628 -9.10787 -3.79838 28 20 27
22.3735 -8.85312 -0.580217 106 129 78
21.682 -8.61432 5.16231 83 65 39
25.7782 -10.2111 -1.50307 132 111 104
21.769 -8.61004 -0.714683 19 25 20
27.0254 -10.7458 -1.7575 147 98 74
21.8347 -8.6365 -5.13728 189 160 135
21.7644 -8.63996 -0.388201 135 131 95
21.7257 -8.64186 2.22379 20 20 14
40.0536 -15.9601 -5.26317 148 109 87
40.0536 -15.9601 -5.26317 148 109 87
27.8494 -11.0689 -2.98737 197 163 92
27.8494 -11.0689 -2.98737 197 163 92
29.9275 -11.9478 -2.59431 137 91 68
37.1913 -14.9416 6.90108 140 180 96
21.7747 -8.66914 -1.0709 156 132 125
24.7519 -9.86855 -1.31047 92 77 68
41.7218 -16.8071 4.01921 20 43 24
31.8631 -12.7435 -6.84269 133 106 84
21.7749 -8.73723 4.64648 26 24 17
23.6433 -9.46932 -3.73256 32 21 20
21.7264 -8.73091 2.22374 20 28 21
21.7739 -8.72858 -0.981892 74 93 46
22.0589 -8.87048 2.89358 32 30 21
22.0589 -8.87048 2.89358 32 30 21
26.2713 -10.5477 -2.10423 96 99 85
25.8225 -10.3497 -4.42509 39 19 19
25.6446 -10.3048 -0.375225 104 135 111
21.7717 -8.72869 -0.833483 115 101 81
39.803 -16.0615 -7.51295 22 15 12
26.5782 -10.682 -6.03487 37 26 27
23.8173 -9.63069 4.89817 58 59 44
23.8173 -9.63069 4.89817 58 59 44
21.7438 -8.75975 1.06613 34 32 17
22.7664 -9.15188 -2.57391 191 124 83
29.0538 -11.6886 -6.35902 38 24 24
23.3833 -9.3801 -6.00798 172 140 97
27.6352 -11.1065 -6.94999 24 23 43
27.6352 -11.1065 -6.94999 24 23 43
27.6352 -11.1065 -6.94999 24 23 43
24.2879 -9.78192 -5.97686 94 51 44
21.7703 -8.78814 -0.714792 35 54 54
22.8006 -9.22357 1.37151 18 18 12
25.4272 -10.279 -1.37935 85 78 68
26.5229 -10.7786 6.23582 22 19 11
21.7348 -8.78989 1.68943 81 65 73
41.9022 -16.9703 -8.07958 74 65 58
26.0019 -10.521 -0.344001 197 176 144
41.7223 -16.9792 4.07645 131 191 178
41.7223 -16.9792 4.07645 131 191 178
22.5812 -9.13917 -2.369 147 108 87
39.5166 -16.0551 -7.13549 135 95 61
27.9878 -11.4189 6.66487 24 22 12
28.4088 -11.5292 -2.50391 109 87 78
21.8347 -8.81467 -5.04835 95 87 68
23.8979 -9.692 -0.517514 80 99 56
24.0788 -9.73008 -5.82747 157 146 113
22.7659 -9.21397 -2.51191 65 54 66
22.7659 -9.21397 -2.51191 65 54 66
22.517 -9.14233 1.96924 10 25 20
21.695 -8.82154 4.39045 85 120 64
21.7104 -8.82079 3.35159 21 19 17
21.7104 -8.82079 3.35159 21 19 17
22.056 -8.96113 3.13476 25 29 33
22.056 -8.96113 3.13476 25 29 33
21.7758 -8.81757 -1.07099 125 147 160
22.5999 -9.13825 -3.63048 196 152 110
38.6722 -15.7194 -5.55823 91 77 51
38.939 -15.8836 -5.33038 39 17 14
41.9082 -17.0848 -8.42369 125 116 101
21.7436 -8.84885 1.12544 86 99 53
21.7436 -8.84885 1.12544 86 99 53
21.7849 -8.84682 -1.66465 108 77 76
31.9916 -13.0387 -3.11941 82 123 100
31.8419 -13.0057 -5.27689 185 115 83
32.2376 -13.1555 -7.27362 32 52 48
39.8046 -16.2793 -7.51308 21 15 13
39.7675 -16.2811 -5.00828 128 102 82
32.0496 -13.0796 -7.01324 111 106 97
39.2486 -16.0482 -7.72962 17 26 32
35.7533 -14.7037 6.77662 34 38 29
35.7533 -14.7037 6.77662 34 38 29
25.3789 -10.3671 -5.79727 27 20 13
24.6949 -10.1418 2.67652 29 31 18
24.6949 -10.1418 2.67652 29 31 18
26.2039 -10.7663 2.55891 50 74 53
29.9905 -12.2721 -6.68578 26 18 16
21.6943 -8.91066 4.47944 133 190 75
24.2402 -9.9984 4.4209 157 212 181
24.2402 -9.9984 4.4209 157 212 181
30.0054 -12.3123 -7.66771 125 111 103
24.9899 -10.2636 -2.34463 25 16 23
24.9899 -10.2636 -2.34463 25 16 23
24.9899 -10.2636 -2.34463 25 16 23
26.8427 -11.0041 -6.67765 188 205 181
26.8427 -11.0041 -6.67765 188 205 181
22.7023 -9.37227 1.8618 13 16 16
22.4341 -9.21654 -4.48695 23 33 37
25.711 -10.637 3.2492 124 133 92
21.7724 -8.99591 -0.744602 67 55 32
21.7724 -8.99591 -0.744602 67 55 32
25.501 -10.5185 -6.24023 46 24 14
25.0582 -10.3807 0.624636 13 14 14
21.8123 -8.99394 -3.44564 44 32 35
26.0306 -10.8252 6.04524 16 25 17
36.2696 -15.094 3.62994 129 139 93
36.1646 -14.989 -5.19985 22 31 24
24.5593 -10.199 4.54805 93 67 30
24.5593 -10.199 4.54805 93 67 30
25.7652 -10.7048 -0.376851 148 143 134
25.2184 -10.4599 -2.57178 57 35 30
37.4374 -15.5435 -9.41324 43 27 36
31.4268 -13.0758 -1.30444 130 164 91
21.817 -9.02341 -3.74248 45 27 17
37.1248 -15.4423 -5.08355 130 101 78
24.4709 -10.1865 3.25494 16 23 17
24.4709 -10.1865 3.25494 16 23 17
24.4709 -10.1865 3.25494 16 23 17
24.7638 -10.3251 5.50587 21 18 14
24.7638 -10.3251 5.50587 21 18 14
24.1695 -10.0523 2.1537 23 38 25
21.8761 -9.10019 3.73752 25 26 19
26.65 -11.1599 6.41235 89 109 71
23.9212 -10.0001 4.95225 41 36 20
30.6365 -12.753 -5.99573 26 20 20
30.6365 -12.753 -5.99573 26 20 20
21.7732 -9.05525 -0.774321 45 68 55
26.5256 -11.1426 6.2356 17 23 17
31.8699 -13.3948 5.28048 99 125 112
27.7007 -11.582 -1.95135 21 32 30
27.7007 -11.582 -1.95135 21 32 30
21.7681 -9.12513 5.30181 10 27 36
29.3065 -12.2555 -2.70147 112 98 73
29.3065 -12.2555 -2.70147 112 98 73
25.6817 -10.7587 -2.65317 17 35 46
41.6718 -17.6127 7.80314 118 167 104
41.6718 -17.6127 7.80314 118 167 104
39.6273 -16.7238 4.68393 131 224 197
25.802 -10.8086 -2.80599 177 131 96
21.815 -9.11259 -3.56444 140 83 48
23.1656 -9.6818 -4.06653 193 177 141
24.5829 -10.3661 3.03417 16 41 32
31.163 -13.0948 -7.03112 128 108 88
21.773 -9.14435 -0.715012 41 57 46
25.7308 -10.8473 2.01693 16 17 13
32.0465 -13.5611 5.8396 33 31 16
28.1684 -11.8328 -5.3226 18 16 21
21.773 -9.14435 -0.715012 41 57 46
21.773 -9.14435 -0.715012 41 57 46
28.1718 -11.9 4.03444 51 40 26
39.2757 -16.5839 -9.28666 156 137 84
24.2941 -10.2115 -6.17544 136 157 181
39.3486 -16.7124 4.54176 68 47 21
36.8437 -15.5935 -2.52734 134 94 68
32.0553 -13.6047 5.26751 41 48 25
33.1239 -14.0515 -2.45875 66 47 44
41.8794 -17.7746 -6.13053 49 24 17
23.0722 -9.73582 -4.11283 83 39 20
31.367 -13.3369 2.86687 17 27 22
38.2651 -16.3008 4.30844 63 34 20
27.587 -11.7391 5.80662 21 25 39
22.3038 -9.49775 4.45511 23 26 18
25.8192 -10.9487 -3.8974 82 70 58
23.6288 -10.0178 -2.47679 72 43 26
25.9538 -10.9991 -4.94096 201 129 38
25.9538 -10.9991 -4.94096 201 129 38
25.9538 -10.9991 -4.94096 201 129 38
25.4157 -10.8006 -0.33809 190 168 138
25.1884 -10.7367 -0.404502 90 84 38
25.1884 -10.7367 -0.404502 90 84 38
24.4853 -10.4025 -4.79553 44 36 29
37.0105 -15.8545 2.84063 141 192 136
37.0105 -15.8545 2.84063 141 192 136
23.3256 -9.97046 4.7291 31 38 22
21.859 -9.29953 -0.747415 52 49 31
31.5255 -13.5006 4.22438 39 62 56
32.7305 -13.9751 -2.07227 114 137 116
27.1814 -11.6776 5.9061 18 17 12
32.9394 -14.1026 -3.12041 124 97 82
31.1936 -13.3898 2.76466 20 21 14
28.9028 -12.4493 4.22105 44 57 38
28.9028 -12.4493 4.22105 44 57 38
22.588 -9.70603 3.5837 95 120 145
31.8358 -13.6587 -4.5378 139 106 79
22.8777 -9.78069 -3.55014 21 22 26
38.6374 -16.6213 -2.75354 126 104 77
38.6374 -16.6213 -2.75354 126 104 77
24.0277 -10.2899 -2.09253 94 97 92
31.1933 -13.4326 2.8074 20 17 16
24.6056 -10.6006 1.62118 12 18 20
32.4259 -14.0321 5.68635 132 106 90
37.6282 -16.2189 -4.99761 111 103 73
23.454 -10.06 -3.8937 93 81 71
25.6667 -11.0399 -1.49699 93 82 71
21.7151 -9.38476 3.32156 197 168 101
24.8894 -10.7264 -2.77599 132 100 81
21.8434 -9.37845 -5.34551 246 209 179
21.8434 -9.37845 -5.34551 246 209 179
34.8654 -15.1458 6.3153 23 24 14
28.7811 -12.462 2.38527 26 25 11
28.7811 -12.462 2.38527 26 25 11
24.713 -10.6818 1.73009 23 17 15
24.713 -10.6818 1.73009 23 17 15
24.0413 -10.4048 3.98663 50 41 17
35.5664 -15.4862 4.33916 27 34 19
32.7322 -14.199 -2.07241 162 101 75
23.3471 -10.1292 3.35575 38 46 29
26.6728 -11.5978 5.09576 41 37 26
22.6531 -9.79555 -0.77231 51 49 33
26.3992 -11.427 -1.97025 47 38 33
26.3992 -11.427 -1.97025 47 38 33
23.3192 -10.1305 5.23998 21 17 11
33.201 -14.507 5.87062 103 114 88
32.8035 -14.2403 -6.86455 18 21 24
22.384 -9.70753 -0.85542 94 126 82
29.0311 -12.6753 5.83699 30 25 9
28.0377 -12.2236 3.70599 31 39 47
27.0061 -11.7441 0.0510281 56 61 84
24.5715 -10.7032 3.97587 125 221 137
21.7964 -9.44016 -2.13992 49 25 30
24.6818 -10.7847 3.89255 50 55 25
28.7838 -12.5802 2.26693 171 145 94
28.7838 -12.5802 2.26693 171 145 94
28.7838 -12.5802 2.26693 171 145 94
28.0351 -12.2622 3.89807 21 28 24
21.7245 -9.47338 2.72787 213 227 173
28.6314 -12.5152 2.56855 174 194 145
28.6314 -12.5152 2.56855 174 194 145
24.6714 -10.732 -2.75202 59 46 32
23.8594 -10.412 2.45086 50 53 22
24.1699 -10.5483 2.38476 103 173 63
24.965 -10.9129 -0.33349 197 171 161
26.1732 -11.4856 4.99772 51 66 48
31.2989 -13.7705 7.68315 18 19 14
41.8871 -18.3478 -6.36024 19 28 29
41.8871 -18.3478 -6.36024 19 28 29
36.4027 -15.9344 -4.93534 121 98 81
36.4027 -15.9344 -4.93534 121 98 81
30.3317 -13.2744 -7.42035 20 23 26
26.3226 -11.5141 -5.08214 54 51 43
26.3226 -11.5141 -5.08214 54 51 43
31.5329 -13.802 -8.09965 29 41 43
22.6966 -9.91704 -3.64546 123 144 95
30.4502 -13.4315 6.92526 57 94 40
35.5701 -15.6814 4.19254 26 28 18
21.8082 -9.55835 -2.88204 62 44 33
21.8082 -9.55835 -2.88204 62 44 33
23.8613 -10.4597 -4.47919 72 36 26
28.7316 -12.628 -4.1376 135 98 69
26.8807 -11.8339 -0.170113 33 33 34
22.746 -9.9908 -0.775275 46 51 35
22.746 -9.9908 -0.775275 46 51 35
24.8563 -10.9317 -0.434183 109 97 83
25.5664 -11.2902 5.40593 29 22 13
24.1098 -10.6319 -0.521914 150 124 82
28.3388 -12.5423 2.73544 16 19 17
28.3388 -12.5423 2.73544 16 19 17
23.8558 -10.4925 -4.0894 18 22 28
31.7892 -14.0527 -1.18861 127 110 73
37.7789 -16.75 2.27804 46 64 53
37.7789 -16.75 2.27804 46 64 53
29.6246 -13.0746 -2.89191 110 90 75
29.6246 -13.0746 -2.89191 110 90 75
37.1937 -16.4045 -9.24955 109 87 53
26.6737 -11.8538 5.16873 34 54 72
32.6636 -14.5161 2.71951 22 32 20
22.2681 -9.80862 -4.87589 112 97 94
30.3057 -13.4815 5.51437 26 26 30
28.312 -12.5112 -5.11807 49 77 69
22.4446 -9.88775 -4.85359 50 48 42
28.5713 -12.6807 -3.14135 46 49 43
28.5713 -12.6807 -3.14135 46 49 43
35.8015 -15.9798 4.17097 148 222 205
22.9977 -10.2108 1.16309 20 21 18
31.5361 -14.0625 3.79153 34 37 16
31.5361 -14.0625 3.79153 34 37 16
26.4264 -11.7142 -3.6644 120 98 75
26.4264 -11.7142 -3.6644 120 98 75
34.1653 -15.1849 -4.02792 72 48 24
34.1653 -15.1849 -4.02792 72 48 24
29.0426 -12.9537 5.19944 30 25 13
26.8804 -11.9442 -0.096697 30 24 27
32.9995 -14.6405 -6.90517 22 15 18
32.9995 -14.6405 -6.90517 22 15 18
25.7184 -11.4819 3.17827 163 215 159
27.5815 -12.3451 6.48745 12 20 19
26.9525 -11.9774 -4.94666 154 115 80
28.2983 -12.6608 5.53002 40 67 37
25.0783 -11.1677 -0.334798 195 169 156
37.4444 -16.6687 -9.31165 45 36 43
37.4444 -16.6687 -9.31165 45 36 43
34.8685 -15.5159 -8.38683 117 110 87
25.2475 -11.2725 3.53363 43 21 11
25.2475 -11.2725 3.53363 43 21 11
36.5096 -16.3974 4.15496 60 30 22
29.7897 -13.3074 -3.3141 64 58 45
24.7736 -11.0845 -2.15596 140 110 119
32.1749 -14.4353 -2.38986 130 95 68
32.1749 -14.4353 -2.38986 130 95 68
26.4988 -11.8815 -0.060199 215 152 93
26.4988 -11.8815 -0.060199 215 152 93
34.2091 -15.4285 7.2772 25 26 24
35.564 -16.0237 4.77831 21 23 17
33.0005 -14.7757 -6.90525 27 15 16
33.0005 -14.7757 -6.90525 27 15 16
33.5888 -15.0446 -6.57077 133 82 83
27.7014 -12.415 -1.57342 100 129 114
27.7014 -12.415 -1.57342 100 129 114
31.1342 -13.947 -4.65043 137 107 80
24.7661 -11.0848 -1.64911 128 119 94
26.4259 -11.8851 4.86498 24 45 33
26.6273 -11.9749 -0.205718 54 31 26
27.5022 -12.394 2.68914 27 17 9
33.1805 -15.0098 7.51175 16 21 23
27.3404 -12.2666 -4.53406 81 65 54
22.5627 -10.1251 -0.615854 73 83 50
24.4979 -10.969 -5.36271 49 40 40
24.3194 -10.9244 -0.459587 96 77 49
27.2448 -12.2418 -6.99806 53 44 36
32.0138 -14.4382 -3.90779 43 43 39
23.9065 -10.7687 -0.550803 150 147 129
23.1225 -10.4096 -0.787147 55 66 42
21.7094 -9.80077 3.91494 70 128 86
27.3407 -12.3039 -4.53408 77 65 54
27.3407 -12.3039 -4.53408 77 65 54
24.3811 -10.9546 -4.6092 26 21 12
32.3746 -14.6076 -3.24445 114 94 77
36.4094 -16.4322 -5.13482 114 98 76
22.6175 -10.23 1.85335 164 184 162
35.7039 -16.1633 -4.59739 153 135 114
24.0382 -10.8988 4.44704 36 39 24
24.0382 -10.8988 4.44704 36 39 24
23.7527 -10.7066 -3.78128 58 30 14
28.3277 -12.7809 -6.04504 62 66 71
28.3277 -12.7809 -6.04504 62 66 71
35.0333 -15.8564 -4.65518 23 32 45
21.7 -9.83093 4.56792 95 163 113
26.498 -11.9902 0.0483778 26 29 32
29.836 -13.5486 4.40078 43 41 34
29.836 -13.5486 4.40078 43 41 34
22.7197 -10.2714 1.14778 16 21 15
25.494 -11.5501 2.55525 29 28 13
25.494 -11.5501 2.55525 29 28 13
28.2714 -12.8223 -2.22202 26 24 30
31.4964 -14.277 -5.39064 26 21 21
27.3799 -12.4445 1.88854 24 34 19
26.3275 -11.9714 3.1474 21 34 24
23.1459 -10.5201 4.11849 99 106 60
27.4913 -12.5075 3.47985 19 30 24
30.2928 -13.815 6.55384 28 20 21
26.1113 -11.8571 1.11771 55 70 52
24.9285 -11.3581 2.35966 65 92 34
24.3204 -11.0572 -0.459669 94 111 66
36.1663 -16.4736 -4.55766 74 50 40
27.9194 -12.6636 -6.9059 49 31 19
25.6543 -11.6715 -0.341026 188 167 160
23.0284 -10.4606 -0.784239 61 72 38
29.5501 -13.5237 2.36958 23 25 23
30.8078 -14.1305 5.90372 137 83 89
30.8078 -14.1305 5.90372 137 83 89
25.0352 -11.3869 -4.83418 131 131 111
26.7538 -12.2157 -0.0602175 233 174 122
23.2849 -10.6258 1.27389 23 21 16
24.7006 -11.2354 -4.46793 195 139 102
24.7006 -11.2354 -4.46793 195 139 102
22.7075 -10.3651 2.01628 22 26 27
27.4821 -12.621 4.15759 11 21 23
27.1005 -12.3674 -6.00444 40 34 22
22.3843 -10.2266 -0.611583 92 91 39
23.0888 -10.5205 -4.83565 28 14 24
23.0888 -10.5205 -4.83565 28 14 24
26.6994 -12.2549 3.63277 25 22 10
23.1358 -10.5667 -1.6072 124 119 57
25.5172 -11.6885 1.05535 65 67 37
26.8846 -12.3484 -0.17043 145 113 110
34.6579 -16.0025 6.08413 29 28 13
32.7751 -15.0483 -4.53617 74 52 51
33.5739 -15.4125 -5.37833 36 43 43
29.8054 -13.7548 6.56902 9 11 9
28.6329 -13.107 -7.0821 119 103 83
25.9979 -11.9432 0.650089 105 67 50
27.2449 -12.4645 -6.88689 11 23 23
27.2449 -12.4645 -6.88689 11 23 23
41.8474 -19.2677 -3.20712 151 97 69
41.8474 -19.2677 -3.20712 151 97 69
31.8691 -14.7517 6.0234 16 19 17
28.1883 -13.0196 3.49311 87 85 60
27.5145 -12.6947 2.01115 25 29 24
27.5145 -12.6947 2.01115 25 29 24
27.5145 -12.6947 2.01115 25 29 24
39.21 -18.0908 -4.08065 28 33 29
26.2502 -12.1278 0.118822 190 205 165
27.7221 -12.7925 -2.78467 102 81 62
26.6949 -12.2992 -4.60895 131 98 74
26.6949 -12.2992 -4.60895 131 98 74
21.7389 -10.0369 2.04484 85 58 46
26.2481 -12.1279 0.262307 50 69 58
24.3477 -11.2766 4.94008 201 167 125
24.0496 -11.0755 -3.17428 112 51 62
24.1126 -11.1256 -0.456402 95 97 68
27.6286 -12.7971 3.53531 21 25 29
26.2502 -12.1278 0.118822 190 205 165
27.8826 -12.8557 -4.31968 136 107 78
28.7734 -13.3695 3.37024 11 19 13
26.5018 -12.2799 -0.0604446 201 177 163
23.5898 -10.8708 -6.05915 109 106 80
32.8128 -15.2807 6.02456 11 20 19
29.8349 -13.7937 -6.1222 95 79 64
32.8128 -15.2807 6.02456 11 20 19
23.0546 -10.6969 3.94321 176 141 84
23.0546 -10.6969 3.94321 176 141 84
32.1962 -14.9185 -3.57829 57 42 45
26.2367 -12.1643 1.05145 86 129 54
26.2367 -12.1643 1.05145 86 129 54
26.2367 -12.1643 1.05145 86 129 54
26.2367 -12.1643 1.05145 86 129 54
32.9689 -15.273 -4.51777 204 165 142
32.9689 -15.273 -4.51777 204 165 142
24.9167 -11.54 -4.20201 22 22 19
30.8054 -14.3845 6.19956 12 19 10
33.1952 -15.4083 -6.58393 53 48 41
26.7932 -12.4999 6.07562 12 14 10
25.5721 -11.921 5.33546 14 20 31
25.8165 -11.9702 -3.19395 67 40 26
25.8165 -11.9702 -3.19395 67 40 26
26.0142 -12.0846 -0.380499 204 181 149
21.8646 -10.1638 -0.68835 71 80 39
26.5013 -12.3524 0.0119398 157 127 113
21.8849 -10.1628 -2.05909 118 95 64
21.8849 -10.1628 -2.05909 118 95 64
28.3711 -13.2397 0.910723 27 30 23
24.2629 -11.2711 -3.53195 118 102 77
24.2629 -11.2711 -3.53195 118 102 77
26.106 -12.1156 -6.56352 126 102 62
22.3311 -10.3662 -2.9197 136 125 85
30.3658 -14.1859 1.81268 15 21 17
25.0728 -11.7162 0.315579 201 160 146
35.1052 -16.4953 5.68029 14 16 11
24.3418 -11.4103 5.4068 59 101 81
26.5031 -12.3885 -0.0967262 208 170 139
25.0292 -11.6601 -4.28885 107 85 58
23.1221 -10.7882 -0.566622 157 147 112
35.9249 -16.8096 -3.74243 107 88 75
35.9249 -16.8096 -3.74243 107 88 75
21.7929 -10.153 -1.54672 121 140 107
21.7929 -10.153 -1.54672 121 140 107
34.739 -16.2843 0.752439 36 23 17
26.608 -12.4855 1.35868 80 71 44
36.4357 -17.0785 -6.57928 118 112 83
23.9682 -11.1899 -4.49861 33 33 37
33.4643 -15.7391 2.19032 17 20 17
25.7373 -12.1149 2.22737 25 20 9
25.7373 -12.1149 2.22737 25 20 9
36.4044 -17.1299 -4.43812 67 52 42
36.7345 -17.3657 5.74684 16 19 16
24.1306 -11.3223 -1.5754 88 73 59
26.4868 -12.498 1.06207 39 66 20
29.4579 -13.8917 -1.70992 139 143 107
28.4556 -13.3909 -4.71749 40 26 24
28.4556 -13.3909 -4.71749 40 26 24
28.0393 -13.1875 -5.37341 92 117 79
41.8928 -19.7817 -6.01708 67 46 54
38.6756 -18.261 -4.50121 66 45 44
22.4094 -10.5612 -2.13777 114 85 75
23.1844 -10.9617 1.74306 22 18 12
23.1844 -10.9617 1.74306 22 18 12
26.4812 -12.5345 1.46041 25 20 11
28.47 -13.5054 4.11487 16 15 10
27.7883 -13.0922 -7.0991 125 105 90
27.7883 -13.0922 -7.0991 125 105 90
31.6879 -15.0586 6.16213 17 20 11
39.0646 -18.635 6.01082 68 122 84
28.1888 -13.3309 -5.93826 19 13 14
41.9158 -19.8953 -7.50799 53 40 35
21.8151 -10.3004 -2.97154 77 42 46
22.4689 -10.6361 -0.0930607 200 179 141
22.5463 -10.68 0.76835 155 158 96
30.4541 -14.5191 7.21731 14 15 15
31.8724 -15.1893 6.02313 183 95 45
22.3584 -10.6248 1.34142 130 149 99
26.6966 -12.6632 -4.5364 94 72 56
22.196 -10.5391 0.361301 73 39 31
22.1154 -10.4968 -0.0927482 197 174 160
33.1812 -15.7717 -5.45109 28 39 31
22.4578 -10.6673 0.672998 40 48 43
25.365 -12.062 -4.00115 127 94 70
26.6713 -12.7684 5.78976 10 15 17
30.3726 -14.5184 1.52136 161 208 128
30.3726 -14.5184 1.52136 161 208 128
32.062 -15.3653 5.70648 13 14 14
32.062 -15.3653 5.70648 13 14 14
33.7558 -16.1539 -3.65733 126 99 78
33.7558 -16.1539 -3.65733 126 99 78
33.7558 -16.1539 -3.65733 126 99 78
22.0363 -10.5149 -0.573266 146 143 128
27.6319 -13.1787 -5.67097 94 85 68
23.2365 -11.0859 -1.70892 104 115 102
21.7675 -10.3918 0.293399 153 160 149
23.2189 -11.1184 -0.505529 90 103 75
29.8155 -14.3682 6.20043 19 15 19
27.081 -13.0294 4.46604 62 67 38
27.081 -13.0294 4.46604 62 67 38
28.19 -13.4846 -5.93835 19 13 13
29.8215 -14.3679 5.7913 11 13 19
21.8669 -10.4618 -0.688534 72 77 45
35.9159 -17.2526 -2.90718 149 91 59
40.6572 -19.5346 -4.89634 126 112 83
40.6572 -19.5346 -4.89634 126 112 83
35.9977 -17.2977 -8.41183 24 33 39
28.658 -13.8087 1.43046 84 93 58
24.0303 -11.5354 -1.63458 85 73 61
24.0303 -11.5354 -1.63458 85 73 61
32.8366 -15.8655 4.71767 46 100 64
32.8366 -15.8655 4.71767 46 100 64
27.0046 -13.0001 0.788678 34 39 30
27.0046 -13.0001 0.788678 34 39 30
37.4158 -18.0004 -6.70429 66 55 35
26.064 -12.5443 -3.50782 49 52 46
22.4716 -10.8199 -0.185103 135 100 93
27.8968 -13.5005 4.41238 18 24 26
27.5174 -13.2974 2.12375 15 18 16
25.9698 -12.5489 2.85286 13 26 22
25.9136 -12.4872 -1.47576 82 76 56
25.9136 -12.4872 -1.47576 82 76 56
28.7425 -13.9231 5.73516 12 14 12
21.7675 -10.5106 0.352689 38 45 42
34.29 -16.6474 2.43426 17 26 29
22.4551 -10.8514 0.948673 178 198 139
29.6472 -14.3288 -3.78314 39 25 30
25.8267 -12.5622 4.43072 14 16 10
22.6229 -10.9225 -4.2777 25 22 25
25.0215 -12.1039 -3.53905 78 59 46
32.4552 -15.8124 4.61671 18 23 49
29.3521 -14.2165 -4.78511 137 104 78
23.8115 -11.5671 -0.54927 95 98 56
32.9907 -16.0382 -5.59951 60 34 29
21.9534 -10.6527 -0.691062 72 71 45
40.412 -19.6659 -8.06563 77 48 24
35.1595 -17.1678 2.35343 200 173 136
35.1595 -17.1678 2.35343 200 173 136
21.7737 -10.5697 -0.0332101 248 210 171
28.8759 -14.0349 -3.2135 29 34 40
35.5139 -17.2714 -6.46134 104 77 54
23.1927 -11.3098 1.36281 39 35 29
23.1927 -11.3098 1.36281 39 35 29
22.7656 -11.1261 4.70312 94 97 88
22.7656 -11.1261 4.70312 94 97 88
22.3767 -10.8987 0.24255 87 43 41
32.0078 -15.6203 -2.90225 60 48 44
22.1264 -10.7678 -0.696011 62 74 45
27.4884 -13.4495 4.15708 40 46 25
26.2142 -12.7449 -5.38062 103 90 74
27.6211 -13.5169 4.40529 13 18 23
41.7631 -20.4765 3.09951 58 126 59
23.7889 -11.6332 1.00994 42 47 38
31.0387 -15.228 2.44989 18 18 26
41.9299 -20.5256 -8.13912 209 216 174
32.5761 -15.9401 -3.48649 101 78 59
32.5761 -15.9401 -3.48649 101 78 59
41.3332 -20.2181 -9.71323 48 25 20
21.9494 -10.7128 -0.391935 163 149 133
32.996 -16.1281 -5.91493 52 42 43
21.7401 -10.6604 2.28191 70 70 58
25.6186 -12.521 -5.36299 37 18 15
34.3704 -16.8786 -2.87818 149 96 64
25.1324 -12.3572 4.20462 34 7 12
24.1573 -11.8715 3.90432 10 17 35
22.3774 -10.9903 0.242493 145 166 141
40.1471 -19.7417 -9.65324 36 40 42
26.3746 -12.9787 0.479664 26 36 24
21.7776 -10.6883 -0.241056 154 141 132
26.9184 -13.2289 -2.00807 166 156 142
22.9 -11.213 -4.32972 30 27 25
29.1646 -14.3426 -2.33043 31 46 53
24.8018 -12.1648 -3.5082 31 31 38
24.8018 -12.1648 -3.5082 31 31 38
24.8018 -12.1648 -3.5082 31 31 38
26.7843 -13.1653 -1.63308 89 85 67
29.6947 -14.6962 3.80628 65 135 97
29.6947 -14.6962 3.80628 65 135 97
31.5184 -15.6211 5.7801 14 18 14
24.0621 -11.8289 -3.63346 63 45 40
24.9574 -12.3117 0.893029 28 24 13
26.573 -13.1425 4.05104 15 13 20
26.573 -13.1425 4.05104 15 13 20
27.6379 -13.6675 3.34556 8 12 12
24.9458 -12.3123 1.67719 36 23 23
24.9458 -12.3123 1.67719 36 23 23
22.7517 -11.2319 -0.527881 69 66 41
22.7517 -11.2319 -0.527881 69 66 41
22.7517 -11.2319 -0.527881 69 66 41
26.7296 -13.2411 2.09646 219 250 168
25.8557 -12.7431 -5.44748 187 169 107
30.9551 -15.3078 -3.44179 126 88 67
33.8201 -16.7048 -7.719 73 72 57
28.9435 -14.3503 2.43664 12 15 21
39.973 -19.9148 2.19355 124 111 76
39.973 -19.9148 2.19355 124 111 76
26.6027 -13.2139 2.08601 206 237 223
21.773 -10.7776 0.115071 52 38 27
22.208 -10.9929 -0.214212 42 40 27
22.208 -10.9929 -0.214212 42 40 27
34.6912 -17.3343 4.51242 36 14 13
36.5109 -18.2528 5.00594 11 13 8
30.1546 -15.0624 5.44146 12 15 12
31.8645 -15.8333 -5.36563 141 116 81
22.1619 -10.9772 -2.9879 115 99 75
22.1619 -10.9772 -2.9879 115 99 75
21.7759 -10.8071 -0.0630383 42 41 29
26.7965 -13.3476 -2.36448 23 28 28
36.0991 -18.0607 0.784079 44 129 90
26.5768 -13.2879 3.86901 10 11 14
26.5768 -13.2879 3.86901 10 11 14
33.2685 -16.6477 2.40405 104 215 171
35.6022 -17.8294 3.11693 79 115 35
27.4458 -13.6783 -1.93411 78 67 58
21.7818 -10.8365 -0.448919 140 123 64
21.784 -10.8364 -0.597328 118 140 121
25.5347 -12.7694 0.426851 6 9 18
21.7838 -10.8661 -0.567665 126 135 98
33.1638 -16.5888 -3.86531 47 33 40
31.1854 -15.5611 -7.28777 13 14 18
32.8035 -16.4359 -5.74625 32 50 31
28.4572 -14.3257 5.40185 9 8 6
29.5146 -14.8617 5.44487 17 17 11
27.6223 -13.8954 4.51859 9 10 11
32.6964 -16.4859 1.50907 9 10 17
39.5823 -19.8921 -9.62476 36 31 25
37.6792 -18.9465 -7.05884 16 23 23
41.8909 -21.1012 -5.21514 51 45 48
25.8412 -13.0215 3.6877 88 190 113
27.6237 -13.9332 4.44288 7 7 7
23.7761 -11.9028 -4.75239 71 49 34
27.5294 -13.8619 1.59622 10 9 15
23.5185 -11.8048 -0.767944 33 38 30
23.5185 -11.8048 -0.767944 33 38 30
41.6201 -20.9405 -8.0219 135 98 75
26.3423 -13.1999 -5.54951 35 25 24
23.9434 -12.0071 -2.41115 100 97 80
29.1817 -14.6606 -3.32653 125 95 68
28.6385 -14.3948 -6.80979 65 72 67
25.5432 -12.8737 -0.096406 14 18 13
30.6065 -15.432 -2.61021 130 86 58
26.3589 -13.304 1.7049 19 18 10
26.3589 -13.304 1.7049 19 18 10
24.6133 -12.4176 2.02373 40 28 20
22.9997 -11.5932 1.72754 82 45 24
29.1947 -14.7397 -4.16313 56 54 58
27.9616 -14.1474 0.359974 91 97 79
28.2065 -14.2936 2.91308 11 17 13
33.0404 -16.7762 4.56456 23 13 9
29.5541 -15.0218 2.85436 12 8 12
27.0503 -13.6996 -1.94392 76 63 54
29.0853 -14.7849 3.24635 6 12 10
27.3727 -13.8317 -5.91457 194 147 114
26.6587 -13.5023 -1.55304 149 133 101
29.3847 -14.9425 3.76477 8 9 10
28.2077 -14.2525 -6.74566 80 72 50
39.5371 -20.0566 -6.4892 36 26 28
27.217 -13.8394 4.59979 8 8 8
22.1858 -11.1872 -4.49577 143 91 72
26.2058 -13.2454 -4.55978 132 102 77
26.2058 -13.2454 -4.55978 132 102 77
31.5386 -15.9959 -7.36992 30 26 17
21.8207 -11.0425 -2.972 89 58 49
21.9277 -11.1329 1.28313 29 27 15
31.1326 -15.8189 -3.58854 114 91 74
27.9305 -14.2254 2.50061 113 123 81
36.4064 -18.5745 -3.84147 94 95 70
28.8999 -14.7885 5.60657 9 12 11
22.7215 -11.523 -4.51146 37 23 21
26.6742 -13.6462 6.04517 12 13 12
27.7868 -14.1922 2.82997 94 134 124
28.8955 -14.8284 5.92357 9 11 8
25.7082 -13.173 4.7262 25 24 26
27.6562 -14.1588 2.3613 8 16 33
24.9269 -12.694 -4.30455 121 99 85
22.6113 -11.5902 2.96467 188 216 152
22.6113 -11.5902 2.96467 188 216 152
22.6113 -11.5902 2.96467 188 216 152
26.4822 -13.5143 -6.51284 45 34 31
25.7418 -13.2065 2.47313 36 120 118
29.7017 -15.3066 3.64313 9 10 8
24.1929 -12.4319 1.78866 11 17 16
24.1929 -12.4319 1.78866 11 17 16
26.3442 -13.5227 -5.51384 5 17 20
41.7496 -21.6245 4.58964 173 146 110
41.7326 -21.6253 5.73643 7 28 39
25.2939 -12.9688 -6.39215 44 49 44
23.683 -12.1986 1.68419 22 37 14
33.5972 -17.4084 7.69518 66 148 124
33.5972 -17.4084 7.69518 66 148 124
29.6405 -15.2605 -2.85278 19 30 36
29.6405 -15.2605 -2.85278 19 30 36
38.0125 -19.6868 5.42445 60 97 87
22.608 -11.6004 -2.92434 120 117 106
26.0973 -13.3959 -5.32061 94 75 67
27.5205 -14.239 2.38676 15 17 16
22.7752 -11.7273 -1.86204 129 104 96
25.8391 -13.3074 -4.03967 141 113 94
25.8391 -13.3074 -4.03967 141 113 94
26.1876 -13.4963 -3.20326 19 22 11
30.8081 -15.9919 6.83283 55 158 110
30.8081 -15.9919 6.83283 55 158 110
23.6554 -12.2323 3.56021 13 12 11
29.2346 -15.0964 -6.67303 109 88 68
29.5536 -15.3457 3.05653 20 16 14
29.6411 -15.3414 -2.85283 23 22 29
21.8258 -11.2501 -3.20958 59 33 24
29.386 -15.1764 -6.58781 66 46 37
25.9606 -13.4402 -4.16436 33 54 62
30.9991 -16.1658 5.59592 47 35 15
30.9991 -16.1658 5.59592 47 35 15
31.7699 -16.5342 1.37631 15 18 11
35.3654 -18.4437 4.16344 191 233 166
32.9989 -17.2317 7.60088 46 78 84
29.2148 -15.1372 -5.31863 49 32 20
27.6562 -14.386 2.4747 16 16 12
23.6577 -12.272 -3.28338 146 119 95
27.7977 -14.4169 -7.06208 41 36 42
25.8471 -13.4127 -4.53259 122 97 78
23.8621 -12.4354 3.29784 11 17 13
33.2956 -17.3762 0.944542 70 99 52
23.0893 -12.0203 2.27094 73 87 61
25.8119 -13.5183 5.91561 19 54 45
34.907 -18.3068 5.11575 34 94 50
34.907 -18.3068 5.11575 34 94 50
26.4755 -13.8391 2.50983 4 15 24
26.4755 -13.8391 2.50983 4 15 24
29.6722 -15.5523 5.759 9 10 8
29.6722 -15.5523 5.759 9 10 8
35.0762 -18.4259 8.61986 98 116 110
31.9565 -16.7171 1.12212 60 88 44
35.7673 -18.7842 7.90452 11 20 13
35.7673 -18.7842 7.90452 11 20 13
21.743 -11.3433 2.4299 31 43 50
34.5245 -18.0755 1.64492 133 134 70
36.2186 -18.9457 -6.83479 86 75 62
25.3724 -13.2373 -3.89819 42 50 58
23.1981 -12.0781 -5.04566 195 154 143
30.467 -15.9283 -4.13535 150 134 103
25.5768 -13.4282 5.79006 114 229 139
25.5768 -13.4282 5.79006 114 229 139
36.0795 -18.9525 2.56444 27 35 21
24.8982 -13.0991 5.29066 124 119 59
24.7914 -12.9766 -2.39365 66 53 35
27.7319 -14.5337 -2.55868 41 29 27
21.8798 -11.4748 -1.04674 137 134 90
24.5895 -12.9572 3.9072 7 8 6
29.5511 -15.4983 -7.18625 27 22 27
31.767 -16.752 1.68067 25 15 12
29.4968 -15.5009 -3.52261 115 87 72
22.2669 -11.7075 2.09498 56 111 107
22.2669 -11.7075 2.09498 56 111 107
22.9698 -12.0428 -2.34611 35 35 39
22.9698 -12.0428 -2.34611 35 35 39
24.3869 -12.8758 3.10523 22 15 12
28.6378 -15.1436 3.46892 51 32 29
24.5773 -12.9915 4.74816 82 132 113
28.4653 -14.9825 -4.56321 37 28 40
28.4653 -14.9825 -4.56321 37 28 40
24.1924 -12.7626 1.98677 154 177 138
28.1813 -14.8303 -4.6713 115 103 75
22.8901 -12.1093 3.06464 7 13 15
29.4998 -15.5813 -3.6837 33 24 9
22.3718 -11.7631 -4.95716 47 62 68
24.7845 -13.1424 5.53808 42 27 20
26.2199 -13.8877 3.05919 80 141 115
34.1636 -18.0831 -2.44118 184 146 155
37.898 -20.1154 -4.04869 136 105 78
24.7103 -13.1159 3.14774 14 14 13
28.4739 -15.0598 -5.10667 143 104 75
33.9656 -18.0181 -3.07676 123 88 63
34.9475 -18.5924 2.52875 132 175 116
34.9475 -18.5924 2.52875 132 175 116
35.7364 -18.9464 -5.3804 168 106 69
29.0388 -15.5046 6.75147 26 35 15
30.3999 -16.1813 0.522249 10 9 9
23.3876 -12.4276 1.78946 25 42 23
28.0752 -14.8685 -6.94174 48 38 29
35.0882 -18.6334 -6.95629 31 21 25
35.0882 -18.6334 -6.95629 31 21 25
34.8094 -18.5191 -2.86676 102 103 82
28.0224 -14.9535 6.1248 66 66 42
26.4709 -14.0929 2.94425 11 15 12
29.2927 -15.6217 -0.0604511 12 10 10
24.1562 -12.8967 4.49862 45 47 30
37.438 -19.9435 -7.21689 102 80 63
36.2329 -19.4299 8.308 72 86 35
29.6993 -15.8766 4.0904 13 13 8
29.6993 -15.8766 4.0904 13 13 8
29.0493 -15.4551 -4.14221 92 157 96
31.5717 -16.9166 2.83826 15 9 6
21.8514 -11.6052 -4.75325 54 61 50
31.9523 -17.1112 1.60314 9 8 8
31.9523 -17.1112 1.60314 9 8 8
31.9523 -17.1112 1.60314 9 8 8
31.0069 -16.532 -6.31786 81 72 58
30.9449 -16.5351 -2.13174 91 85 72
24.9308 -13.3363 3.21078 10 11 9
33.5827 -17.9361 -4.69181 36 35 42
26.7081 -14.2644 -4.501 109 99 74
34.7181 -18.6665 3.36913 122 174 81
22.0297 -11.7265 -5.29885 52 44 48
30.0515 -16.1299 1.99657 19 25 21
30.0515 -16.1299 1.99657 19 25 21
32.3268 -17.3997 1.40137 8 9 6
21.7459 -11.6698 2.40002 17 90 37
21.7459 -11.6698 2.40002 17 90 37
23.4718 -12.6093 2.79149 33 30 25
41.3264 -22.1963 -8.24587 40 28 15
30.5779 -16.4793 -0.143665 168 131 75
31.219 -16.8538 2.80529 15 8 9
30.5766 -16.4793 -0.0600312 191 150 84
33.5111 -18.0773 0.216388 144 135 103
25.0375 -13.4997 3.60231 9 15 13
31.5311 -16.9428 -6.38139 73 65 56
31.5311 -16.9428 -6.38139 73 65 56
25.1498 -13.5955 3.65339 14 14 13
39.2501 -21.2037 -5.20985 17 34 43
37.3793 -20.2022 -3.12578 95 118 93
37.3793 -20.2022 -3.12578 95 118 93
37.3793 -20.2022 -3.12578 95 118 93
24.3654 -13.1141 -2.45274 45 32 28
24.3654 -13.1141 -2.45274 45 32 28
39.2501 -21.2037 -5.20985 17 34 43
26.1748 -14.1042 -2.02546 81 64 56
25.6048 -13.7779 -3.79419 106 106 89
30.9712 -16.703 -3.8232 121 93 75
26.5793 -14.305 -4.26259 108 126 99
38.6055 -20.9121 1.58399 38 80 62
41.9599 -22.7041 -9.0579 172 147 125
25.5916 -13.8135 -2.88735 118 87 68
37.4577 -20.2496 -8.39332 225 234 237
37.4577 -20.2496 -8.39332 225 234 237
36.0982 -19.595 1.62412 86 93 34
27.5111 -14.8371 -5.75672 23 19 16
39.4017 -21.4155 3.34947 119 143 69
22.0538 -11.8963 -1.05468 125 143 92
36.8222 -19.9865 1.15346 39 30 18
30.1392 -16.2902 -3.84471 63 41 25
25.1677 -13.6634 2.48362 46 32 13
22.6347 -12.269 1.72852 15 25 19
22.6347 -12.269 1.72852 15 25 19
23.8508 -12.8976 -2.53164 121 109 68
34.7573 -18.9027 0.84603 77 43 22
33.6513 -18.3291 4.51015 10 14 10
24.5871 -13.3612 4.27698 11 9 8
22.4423 -12.1703 2.48002 12 13 19
32.4646 -17.6827 4.92721 15 19 15
35.1862 -19.1922 1.58084 116 66 34
35.1862 -19.1922 1.58084 116 66 34
37.8942 -20.6342 -3.5306 120 79 47
37.8942 -20.6342 -3.5306 120 79 47
35.3375 -19.1848 -8.63952 104 105 65
31.547 -17.1141 -7.37061 39 23 17
32.8219 -17.8239 -6.28454 29 30 19
36.6822 -19.9995 -5.67173 33 36 30
28.1909 -15.4148 4.53428 9 13 9
40.7375 -22.2032 -8.96068 36 37 48
28.5085 -15.524 -7.20294 119 100 88
22.5828 -12.3096 -0.863343 86 93 62
22.5828 -12.3096 -0.863343 86 93 62
30.5006 -16.634 -6.04879 36 30 27
25.8837 -14.1517 1.38805 86 81 41
37.2844 -20.4627 3.42009 136 131 101
23.1018 -12.6192 1.73444 116 164 94
41.7507 -23.0012 5.21953 11 39 51
26.1193 -14.3212 1.83023 22 17 13
26.1193 -14.3212 1.83023 22 17 13
23.4175 -12.8095 -0.0311286 13 16 16
30.8546 -16.902 -7.29263 226 202 158
25.5813 -14.094 5.82469 23 25 18
38.8522 -21.4337 3.35438 33 34 24
25.0244 -13.7744 4.62958 9 8 8
33.6381 -18.4382 -8.17838 79 58 39
22.5801 -12.4263 5.4974 80 118 94
24.8993 -13.7131 5.52894 121 121 40
24.8993 -13.7131 5.52894 121 121 40
24.8993 -13.7131 5.52894 121 121 40
22.8605 -12.5238 -0.997737 39 39 24
35.3666 -19.5601 4.64793 168 154 89
39.6312 -21.9534 7.0766 16 21 19
28.9313 -15.8858 -6.01354 32 20 18
24.3419 -13.381 -0.726676 47 49 35
25.156 -13.8022 -4.24072 107 70 59
34.9181 -19.3127 4.87561 24 25 26
32.0998 -17.673 -8.06609 39 41 43
22.8568 -12.5863 -0.717448 44 62 44
31.3362 -17.2758 -4.89211 161 135 113
31.3362 -17.2758 -4.89211 161 135 113
35.7683 -19.7265 -7.13881 106 76 60
21.8371 -11.9919 -3.5959 74 51 52
37.1947 -20.5209 -7.22018 31 19 22
25.4627 -14.0286 -1.86774 154 128 87
33.681 -18.6509 2.66389 33 36 19
33.681 -18.6509 2.66389 33 36 19
26.151 -14.4625 -0.240576 223 161 119
40.8356 -22.7141 4.7654 21 26 12
25.0005 -13.8104 -1.25581 124 118 81
21.7354 -12.0266 3.29025 98 94 109
23.4988 -12.9333 -5.46034 38 32 42
23.4988 -12.9333 -5.46034 38 32 42
26.8422 -14.8868 3.97985 39 43 10
26.8422 -14.8868 3.97985 39 43 10
22.4042 -12.3935 -0.857076 73 113 74
28.7396 -16.0135 6.99535 20 17 9
24.051 -13.3674 4.84041 64 66 39
24.051 -13.3674 4.84041 64 66 39
35.5157 -19.6984 -5.34692 61 51 38
24.1026 -13.3649 1.35216 8 8 10
24.7044 -13.7246 3.85695 41 56 43
35.7459 -19.8253 -5.57627 178 150 120
27.1345 -15.1054 1.90471 96 153 83
21.7297 -12.0863 3.70576 39 38 18
24.1078 -13.3976 1.02306 11 14 11
27.0725 -15.1084 6.09725 14 23 19
32.8086 -18.3459 7.86983 142 157 72
41.7375 -23.4034 6.30874 30 33 28
24.0208 -13.3716 -0.0629666 230 180 155
23.3676 -12.9761 -3.11622 34 31 24
36.3134 -20.3227 3.32794 17 18 21
21.8393 -12.1106 -3.68502 169 133 94
35.7481 -19.9229 -5.67399 49 38 35
21.8407 -12.1105 -3.77406 83 53 44
32.0752 -17.8493 -6.31617 42 20 20
21.731 -12.1456 3.64636 144 188 126
25.0732 -13.9433 -6.09723 28 42 56
25.0662 -14.0122 1.92383 138 215 112
37.0259 -20.7833 4.31073 42 30 12
37.0259 -20.7833 4.31073 42 30 12
36.4774 -20.3644 -7.72659 116 90 63
24.119 -13.4629 0.299042 14 18 19
24.8881 -13.8844 -1.08088 29 27 19
25.0732 -13.9433 -6.09723 28 42 56
25.0732 -13.9433 -6.09723 28 42 56
24.1842 -13.5566 2.94478 154 187 139
23.6295 -13.2078 -0.900569 85 87 52
31.1894 -17.5397 5.15677 41 35 13
28.2169 -15.8384 2.98936 50 31 18
24.0237 -13.437 -0.226835 253 230 191
29.5259 -16.6024 5.56522 19 16 11
24.1441 -13.5586 5.65503 38 39 36
33.4076 -18.8626 7.60127 118 129 80
41.7388 -23.5754 6.30863 97 163 112
21.7288 -12.2051 3.82441 129 196 92
21.7288 -12.2051 3.82441 129 196 92
32.6466 -18.2974 -7.04976 55 27 28
22.5571 -12.5938 -5.05845 73 64 89
22.5571 -12.5938 -5.05845 73 64 89
24.8258 -13.9554 3.1617 117 136 129
36.712 -20.5998 -7.37635 87 74 63
34.9579 -19.6941 2.38436 21 19 18
34.9579 -19.6941 2.38436 21 19 18
29.5428 -16.5459 -6.09988 27 24 25
23.0471 -12.9419 -0.785769 49 41 35
23.0471 -12.9419 -0.785769 49 41 35
24.2361 -13.6202 -0.525691 167 166 152
32.6153 -18.3435 -4.9127 38 41 44
32.6153 -18.3435 -4.9127 38 41 44
25.5922 -14.3718 -2.64353 41 38 30
32.121 -18.18 3.15245 23 23 23
25.6488 -14.4039 -6.44542 110 88 71
24.6362 -13.8304 -6.05766 39 33 34
24.1214 -13.5944 0.200237 255 240 161
29.7144 -16.7146 -7.10357 138 85 60
23.1676 -13.0853 3.95856 15 23 19
25.999 -14.6805 1.96318 30 25 26
32.2804 -18.2876 4.98607 33 26 27
23.805 -13.4524 0.846394 133 60 41
30.1923 -17.0284 -7.0537 28 36 32
30.1623 -17.1309 5.97786 5 15 14
25.0124 -14.1168 -1.90379 135 124 106
31.8544 -18.0097 -3.5835 147 130 84
23.1762 -13.1166 3.38851 100 149 69
23.1762 -13.1166 3.38851 100 149 69
27.1423 -15.402 1.5335 30 24 21
27.1423 -15.402 1.5335 30 24 21
27.1423 -15.402 1.5335 30 24 21
28.4605 -16.1089 -3.67117 107 79 64
25.0871 -14.2168 0.622271 34 23 23
34.7264 -19.7615 3.36845 46 33 15
27.7428 -15.8306 6.6324 54 72 50
30.5093 -17.403 4.95742 22 27 22
30.5093 -17.403 4.95742 22 27 22
23.3087 -13.2335 0.986065 88 114 52
34.3127 -19.5623 2.38545 29 21 17
23.4078 -13.2893 0.862786 100 83 41
23.7107 -13.4593 0.454282 53 24 21
24.8924 -14.1219 -1.25074 112 111 73
28.0459 -15.9407 -4.41945 21 34 47
28.3488 -16.1024 -5.77677 28 12 13
28.3488 -16.1024 -5.77677 28 12 13
25.1814 -14.2807 -5.71369 96 78 73
24.2953 -13.8483 2.6591 91 150 94
24.3887 -13.9099 3.50471 29 24 9
24.0255 -13.6664 -0.226976 242 212 142
31.5635 -18.042 3.96208 19 18 18
31.5635 -18.042 3.96208 19 18 18
31.5635 -18.042 3.96208 19 18 18
29.8293 -16.9694 -4.13021 93 79 64
21.7238 -12.4132 4.26951 230 91 45
29.2496 -16.7456 3.42293 108 186 154
24.6163 -14.0665 2.66186 126 155 138
24.6048 -14.067 3.43556 91 149 76
24.6048 -14.067 3.43556 91 149 76
24.0233 -13.6992 -0.0631686 168 94 77
30.9739 -17.7181 -3.48556 124 102 68
30.9739 -17.7181 -3.48556 124 102 68
25.6869 -14.6848 -1.00866 80 100 67
28.6482 -16.4379 3.4289 138 162 120
23.8202 -13.6141 -0.0957513 129 117 103
26.882 -15.3995 1.55456 67 85 74
28.8123 -16.5227 2.34335 75 109 83
36.748 -21.1512 6.75369 77 54 43
36.748 -21.1512 6.75369 77 54 43
36.748 -21.1512 6.75369 77 54 43
25.8359 -14.7516 -3.09005 110 95 88
25.7645 -14.7551 1.73289 99 156 110
25.7645 -14.7551 1.73289 99 156 110
40.2808 -23.2098 2.59488 66 36 13
32.5027 -18.7053 2.87854 96 149 133
32.5027 -18.7053 2.87854 96 149 133
23.5609 -13.5334 3.8982 29 27 8
24.2108 -13.8205 -5.72335 21 25 23
24.2108 -13.8205 -5.72335 21 25 23
38.7251 -22.23 -5.82689 152 144 104
31.3594 -18.002 -6.08989 124 95 70
22.7382 -13.0057 -4.88309 104 79 52
41.9265 -24.1398 -6.07711 150 122 87
41.9265 -24.1398 -6.07711 150 122 87
23.1134 -13.2214 -5.11997 32 26 22
34.83 -20.0421 -3.48653 118 86 68
34.83 -20.0421 -3.48653 118 86 68
41.8841 -24.1419 -3.21012 134 132 100
39.9101 -23.1005 8.06019 29 38 25
39.9101 -23.1005 8.06019 29 38 25
23.9052 -13.7389 1.04596 17 20 17
23.9052 -13.7389 1.04596 17 20 17
23.3755 -13.4506 3.13015 80 82 83
23.3755 -13.4506 3.13015 80 82 83
23.8125 -13.6795 0.456442 42 33 51
23.8125 -13.6795 0.456442 42 33 51
25.759 -14.7514 -5.84436 90 80 67
31.0118 -17.8432 -5.98039 126 88 61
26.9861 -15.5046 -5.42648 54 41 27
35.1243 -20.3528 6.35284 86 111 100
41.7088 -24.2079 8.65917 84 127 88
30.2082 -17.4597 3.04111 16 17 9
25.2784 -14.6249 3.15139 97 164 133
29.4094 -16.9381 -7.26969 49 34 36
28.8117 -16.6805 2.46151 16 22 18
25.6921 -14.8248 -1.28908 113 107 72
26.0086 -15.0356 1.50101 40 48 36
29.7001 -17.2608 4.74063 26 33 11
29.7001 -17.2608 4.74063 26 33 11
37.1888 -21.5376 -6.30645 41 43 35
37.1888 -21.5376 -6.30645 41 43 35
30.048 -17.447 2.90073 14 11 11
27.2435 -15.8151 3.81559 33 45 16
34.0071 -19.6885 -5.02804 75 36 38
34.0071 -19.6885 -5.02804 75 36 38
30.5125 -17.6319 -6.34052 84 71 55
25.5153 -14.7943 2.76253 36 27 22
23.4206 -13.5442 0.128099 255 239 191
27.8062 -16.17 2.52447 92 125 103
27.8062 -16.17 2.52447 92 125 103
27.6036 -16.0056 -2.32133 54 44 35
28.2042 -16.4186 4.1475 28 29 11
28.2042 -16.4186 4.1475 28 29 11
23.3264 -13.519 -0.0635741 144 124 108
23.2173 -13.4631 0.791448 11 15 24
23.3271 -13.5508 -0.0953956 142 130 122
40.5791 -23.7143 2.50298 125 123 130
23.727 -13.7821 -0.483937 196 162 124
24.2906 -14.1474 3.12367 22 56 45
34.039 -19.9121 6.90196 46 46 14
30.4858 -17.8225 6.75529 60 90 68
25.2853 -14.7283 2.7366 12 18 15
39.594 -23.0286 -8.81575 117 89 51
39.594 -23.0286 -8.81575 117 89 51
39.594 -23.0286 -8.81575 117 89 51
29.8307 -17.4373 6.7304 21 17 13
28.3497 -16.5803 4.05265 15 16 14
27.4039 -15.9191 -6.95984 128 106 74
23.3297 -13.5825 -0.254425 190 165 144
22.681 -13.2526 5.27159 22 23 10
40.4652 -23.5876 -9.67021 157 116 61
40.4652 -23.5876 -9.67021 157 116 61
27.4946 -16.124 5.09683 14 19 14
27.4929 -16.124 5.20979 5 21 24
22.0298 -12.8039 -4.76102 89 66 54
23.3239 -13.6146 0.15898 204 131 121
26.5925 -15.5807 3.97676 9 11 13
39.7124 -23.3113 2.28397 72 91 56
39.7124 -23.3113 2.28397 72 91 56
22.4064 -13.1224 5.39053 104 133 114
22.4064 -13.1224 5.39053 104 133 114
23.2659 -13.5557 -2.43883 39 36 34
24.176 -14.1522 3.80376 91 128 113
27.4979 -16.1238 4.87089 22 16 12
25.0575 -14.6637 2.84813 26 22 23
25.0575 -14.6637 2.84813 26 22 23
23.3196 -13.6148 0.445197 41 90 47
32.8264 -19.2915 7.1484 23 18 12
22.408 -13.153 5.29858 10 20 16
26.8673 -15.7678 2.73008 36 39 29
30.1707 -17.6467 -5.28527 176 116 80
30.1707 -17.6467 -5.28527 176 116 80
24.716 -14.4654 -3.86442 30 46 37
30.5205 -17.8812 -6.75654 38 40 41
30.5205 -17.8812 -6.75654 38 40 41
23.4277 -13.7356 -0.255252 103 92 104
41.697 -24.6674 9.691 176 200 83
41.697 -24.6674 9.691 176 200 83
25.8378 -15.2155 5.03035 24 25 26
25.6228 -14.9984 -4.38789 34 33 36
21.7737 -12.7968 1.09332 139 153 106
21.7737 -12.7968 1.09332 139 153 106
22.3775 -13.1581 1.33986 117 131 111
29.7944 -17.5411 -1.48553 105 115 77
28.2088 -16.6502 3.95427 120 123 82
22.2396 -13.1077 4.64746 36 26 38
22.2396 -13.1077 4.64746 36 26 38
23.3161 -13.7104 0.731355 28 21 20
28.3688 -16.6423 -6.85837 54 28 29
23.2319 -13.6525 -0.0953965 229 222 204
23.2319 -13.6525 -0.0953965 229 222 204
26.5835 -15.6453 -3.86505 49 48 37
27.3837 -16.1066 -5.50584 135 104 77
23.3258 -13.7418 0.0952981 244 163 129
28.645 -16.9481 3.89919 35 26 6
30.1569 -17.876 6.72188 20 22 23
21.7507 -12.8277 2.66644 23 29 38
25.7707 -15.1364 -6.44029 193 145 81
23.728 -13.9762 -0.451711 172 144 119
34.1988 -20.1847 -3.75067 41 42 26
24.1865 -14.317 3.17568 123 116 77
24.1865 -14.317 3.17568 123 116 77
26.6122 -15.7618 2.73943 44 91 110
26.6122 -15.7618 2.73943 44 91 110
40.746 -24.0959 -8.57227 20 15 15
37.6579 -22.2958 -3.92009 144 91 63
23.3232 -13.7737 0.28609 31 22 20
23.3232 -13.7737 0.28609 31 22 20
27.2355 -16.1512 4.5238 16 16 15
31.8985 -18.996 6.19579 113 163 153
31.8985 -18.996 6.19579 113 163 153
23.3173 -13.8058 0.699495 119 86 53
28.7666 -17.1165 5.73319 18 21 17
23.9448 -14.2276 5.50666 24 26 28
31.6651 -18.7726 -2.52596 126 110 87
33.8291 -20.1618 7.23042 84 143 101
33.8291 -20.1618 7.23042 84 143 101
27.527 -16.3484 3.02561 11 14 14
27.527 -16.3484 3.02561 11 14 14
41.0595 -24.3297 -9.53232 32 22 22
22.2912 -13.1964 1.21255 57 44 33
26.2495 -15.5292 -6.3463 131 174 201
34.668 -20.7168 7.79493 16 18 12
35.6995 -21.2443 -1.71947 115 121 75
21.7259 -12.918 4.38793 58 42 27
22.6472 -13.4429 1.48065 28 22 20
21.7529 -12.9463 2.57732 80 78 63
29.7274 -17.6453 -7.5089 65 51 53
41.9517 -24.9991 -7.33912 81 61 62
41.9517 -24.9991 -7.33912 81 61 62
37.1603 -22.1488 -4.07173 57 27 31
23.3279 -13.9007 0.0315963 222 170 148
29.8729 -17.8855 4.11171 15 19 19
29.8729 -17.8855 4.11171 15 19 19
41.9547 -25.0563 -7.51117 140 142 102
23.642 -14.1423 5.43507 55 117 87
29.2286 -17.5079 5.22457 42 67 45
29.2286 -17.5079 5.22457 42 67 45
29.2286 -17.5079 5.22457 42 67 45
23.3305 -13.9324 -0.127433 141 115 103
23.3305 -13.9324 -0.127433 141 115 103
23.506 -14.0515 1.2191 150 144 114
23.4098 -13.9921 1.08591 19 20 15
22.5393 -13.4224 -3.43488 178 127 72
28.1708 -16.9225 6.65727 24 26 18
28.1708 -16.9225 6.65727 24 26 18
24.4162 -14.609 2.00384 20 27 17
34.9708 -21.0354 2.19192 106 143 90
28.0733 -16.8728 3.6647 14 17 16
33.6536 -20.1355 -8.36291 209 140 85
33.6536 -20.1355 -8.36291 209 140 85
35.0666 -21.0307 -4.27514 84 95 81
23.4765 -14.0527 -3.38518 47 45 28
26.4902 -15.8577 -5.86553 38 17 19
26.4902 -15.8577 -5.86553 38 17 19
29.0607 -17.4369 -3.90566 86 67 53
29.5171 -17.8176 6.77872 44 36 26
29.5171 -17.8176 6.77872 44 36 26
23.0823 -13.8822 3.68895 77 92 59
21.8375 -13.0906 -3.06231 28 20 23
21.8375 -13.0906 -3.06231 28 20 23
26.5961 -16.0538 3.97647 8 12 9
26.5961 -16.0538 3.97647 8 12 9
23.2282 -13.9695 0.316103 205 176 155
23.2282 -13.9695 0.316103 205 176 155
22.8922 -13.7989 3.78295 33 31 25
21.8445 -13.0903 -3.53721 255 173 102
25.653 -15.3807 -6.23674 91 51 39
25.653 -15.3807 -6.23674 91 51 39
30.1915 -18.1395 -6.43736 41 24 12
24.1746 -14.6152 4.13399 105 103 71
24.1746 -14.6152 4.13399 105 103 71
35.5712 -21.4431 -8.21057 27 29 35
35.5712 -21.4431 -8.21057 27 29 35
23.2359 -14.0008 -0.190618 225 183 137
22.6532 -13.6899 1.20246 40 18 18
22.6532 -13.6899 1.20246 40 18 18
31.8859 -19.3906 7.24556 20 17 16
31.8859 -19.3906 7.24556 20 17 16
25.2427 -15.3182 5.91584 209 191 115
25.2427 -15.3182 5.91584 209 191 115
40.3926 -24.4756 -4.31179 133 96 65
40.3926 -24.4756 -4.31179 133 96 65
31.564 -19.2103 4.52361 12 11 13
30.1643 -18.3722 6.47341 15 18 15
23.4409 -14.2472 5.70897 90 124 70
21.9592 -13.2298 -5.51762 83 40 48
21.9592 -13.2298 -5.51762 83 40 48
28.9334 -17.6017 4.77266 103 91 54
35.5745 -21.739 6.97219 14 17 14
26.4889 -16.121 2.76193 17 17 12
29.191 -17.7688 -2.37238 117 105 86
26.605 -16.2354 3.46691 22 12 9
34.8897 -21.3749 7.84439 80 165 175
41.7599 -25.5822 5.90601 111 165 100
22.9455 -13.984 0.279896 132 104 112
23.7838 -14.4589 -3.97767 45 28 33
23.7838 -14.4589 -3.97767 45 28 33
25.0572 -15.2402 -4.35924 171 138 94
26.247 -16.0755 2.34041 9 13 10
22.9272 -14.0162 1.53093 72 53 48
22.9272 -14.0162 1.53093 72 53 48
31.1632 -19.0505 -4.01575 107 90 69
30.3021 -18.5309 -2.74993 19 18 19
24.3033 -14.8073 -4.45958 206 146 92
24.3033 -14.8073 -4.45958 206 146 92
25.019 -15.3508 5.79305 42 43 17
22.9432 -14.0467 0.467515 46 32 34
29.6432 -18.1759 -1.55938 115 111 81
24.5192 -14.9709 -4.765 109 103 75
24.5192 -14.9709 -4.765 109 103 75
22.9485 -14.0777 0.123457 180 104 81
33.243 -20.5263 6.09489 16 22 14
29.3687 -18.1253 6.46022 15 14 14
29.3908 -18.1242 4.9706 26 28 17
25.9863 -15.9513 -4.62569 63 37 37
27.2522 -16.8218 3.7404 24 16 8
28.9099 -17.7799 -3.61002 49 33 23
22.8531 -14.051 0.27837 240 186 150
22.6657 -13.8754 -5.66407 81 44 36
22.8471 -14.0513 0.683288 18 16 21
23.0493 -14.1672 -0.315434 192 186 153
22.9492 -14.109 0.0921616 219 142 119
31.0401 -19.1109 -7.2497 55 52 43
22.9545 -14.14 -0.251896 238 187 155
28.3212 -17.4559 -3.22891 46 29 33
