ply
format ascii 1.0
element vertex 1376
property float x
property float y
property float z
property uchar red
property uchar green
property uchar blue
end_header
-15.1963 -9.73057 63.9119 164 222 212
-7.79914 1.27953 32.8013 50 104 255
-7.67728 1.75178 32.2888 13 14 17
-7.79914 1.32499 32.8013 61 102 146
-13.7439 -7.12115 58.4854 68 102 50
-14.0608 -6.49438 60.1889 19 20 22
-13.9774 -8.16273 60.1889 69 73 39
-6.51434 1.91069 28.0518 68 102 136
-7.45353 1.79653 32.2888 11 14 19
-7.61211 1.51484 32.9758 28 22 27
-14.6028 -5.51063 63.2597 16 17 18
-14.3685 -8.49254 62.6207 55 75 43
-14.2249 -8.92314 61.9945 36 38 39
-6.32216 1.91491 27.5531 133 142 154
-14.1389 -6.00186 61.9945 57 57 33
-14.4275 -5.33528 63.2597 15 16 18
-14.2818 -9.534 62.6207 50 56 32
-14.7281 0.192067 64.5776 23 19 24
-14.6386 -10.2794 64.5776 255 255 255
-14.6386 0.013067 64.5776 23 20 22
-7.51498 1.43105 33.1521 18 17 25
-13.9671 -8.40762 61.9945 69 72 34
-14.2521 -5.07226 63.2597 17 17 17
-7.46903 1.43105 33.1521 17 15 21
-14.2521 -9.45593 63.2597 29 39 33
-7.80285 0.967008 34.6338 26 27 26
-13.609 -7.56888 60.7789 21 26 23
-14.1645 -9.45593 63.2597 23 31 30
-7.75014 0.393205 34.8284 62 70 80
-13.9346 -0.247693 62.6207 22 20 23
-14.2219 -9.642 63.9119 35 38 30
-7.70187 0.731092 34.8284 77 111 148
-7.70187 0.731092 34.8284 77 111 148
-14.3404 -9.93543 65.2574 51 60 33
-14.0448 -4.9474 63.9119 14 15 17
-14.0121 -9.11593 64.5776 25 32 33
-5.89981 1.85203 27.1906 164 173 181
-13.4516 -0.588896 61.9945 18 17 25
-7.73079 1.29107 35.629 47 60 54
-7.49649 0.592946 35.2242 86 114 127
-7.49649 0.690582 35.2242 91 124 151
-7.49649 0.7394 35.2242 91 120 139
-7.53932 0.547237 35.4254 75 96 106
-7.44767 0.641764 35.2242 72 104 128
-13.5133 -4.32736 63.9119 41 32 31
-13.3754 -5.33528 63.2597 61 56 45
-13.6541 -8.84743 64.5776 79 88 47
-6.92658 1.97186 32.9758 33 42 56
-7.39203 0.694528 35.4254 63 89 124
-13.0667 -9.70757 62.6207 255 255 255
-13.2001 -9.8943 63.2597 255 255 255
-7.25996 1.65753 35.0252 17 19 35
-7.34293 0.84182 35.4254 70 77 55
-12.9799 -7.97181 62.6207 22 24 20
-7.20358 1.8134 35.2242 17 13 17
-7.3711 0.906456 36.0433 80 102 141
-7.16288 1.94878 35.0252 19 17 20
-13.0276 -9.20543 64.5776 30 50 32
-13.0276 -9.29493 64.5776 40 46 32
-12.8047 -9.11053 63.9119 28 37 31
-12.9381 -9.38443 64.5776 47 48 29
-4.54965 1.70411 22.7086 65 67 69
-12.9381 -3.47743 64.5776 45 41 40
-12.4987 -9.19291 63.2597 55 60 48
-9.01258 0.971152 46.2646 16 15 16
-13.1769 -4.04617 68.1258 28 29 38
-13.6839 -4.2322 71.2581 26 27 42
-8.95114 0.849251 46.6124 17 18 18
-6.29895 1.91597 32.8013 52 65 67
-12.4011 -9.11593 64.5776 135 194 237
-8.2077 1.67938 43.0518 18 12 17
-6.15578 1.93078 32.2888 121 93 75
-8.2077 1.67938 43.0518 18 12 17
-8.1511 1.60854 42.7548 13 12 16
-12.2221 -8.39993 64.5776 22 25 24
-8.09184 1.54929 42.7548 14 15 20
-12.3507 -1.7052 65.2574 55 47 49
-12.5239 -9.68716 66.6608 255 255 255
-12.2603 -8.5788 65.2574 22 31 31
-7.97757 1.65637 42.462 14 12 17
-5.78067 1.98243 30.9973 158 167 170
-5.83906 1.95906 31.3104 178 174 165
-8.75859 0.855685 46.9655 17 20 24
-12.0794 0.374973 65.2574 61 56 52
-13.6612 -4.69021 73.803 32 34 39
-13.8258 -4.85024 74.6922 31 34 44
-12.7505 -1.70446 68.8828 54 48 50
-12.7505 -1.70446 68.8828 54 48 50
-12.2079 0.104749 65.9516 51 52 48
-12.2079 0.104749 65.9516 51 52 48
-7.85482 1.1345 42.7548 28 53 133
-7.8497 1.14238 43.0518 28 70 141
-7.8497 1.20204 43.0518 117 130 149
-13.5753 -10.6723 75.6031 111 110 85
-12.7951 -9.26889 71.2581 64 58 46
-13.4705 -10.6723 75.6031 117 125 89
-4.24839 1.72322 23.844 178 182 176
-12.6963 -9.26889 71.2581 80 71 25
-11.5367 -7.31261 65.2574 18 21 22
-7.44793 1.89177 42.462 14 12 20
-7.76713 1.05227 44.2818 57 75 100
-13.1012 -11.1648 74.6922 255 255 255
-7.76713 1.05227 44.2818 57 75 100
-7.87969 1.00526 44.9236 50 70 101
-13.1562 -11.301 75.6031 255 255 255
-8.05079 0.971152 46.2646 49 75 107
-8.17277 0.920776 46.9655 48 78 109
-8.17277 0.920776 46.9655 48 78 109
-8.05079 0.971152 46.2646 49 75 107
-7.42393 1.63104 43.3528 15 14 19
-13.1629 -1.70272 77.4931 17 17 26
-12.8418 -0.299044 75.6031 14 17 24
-10.8796 -6.87843 64.5776 60 65 54
-11.6049 0.395805 68.8828 14 19 25
-11.5094 0.300338 68.8828 13 17 29
-11.5094 -8.29166 68.8828 76 73 41
-11.9448 -8.77723 72.0867 51 56 53
-11.7088 -8.57758 71.2581 67 65 44
-7.05266 1.58202 43.6581 18 13 21
-10.0148 0.528064 61.9945 20 18 20
-12.2131 0.015298 75.6031 18 17 22
-6.99215 1.58202 43.6581 20 13 21
-11.9625 -8.16281 74.6922 38 24 19
-11.8201 -11.2365 73.803 43 64 62
-12.1084 -11.301 75.6031 41 53 43
-12.4111 -5.56912 77.4931 17 16 19
-6.94326 1.75121 43.3528 14 15 18
-6.83537 1.44071 43.0518 24 27 30
-7.08125 0.936219 44.6004 28 39 55
-11.8988 -10.2532 75.6031 38 35 26
-12.0457 -10.4858 76.5364 25 35 26
-11.8988 -0.403824 75.6031 18 19 28
-12.0889 -10.7243 77.4931 28 36 33
-11.8335 -9.74333 76.5364 25 27 29
-11.4109 -8.78164 73.803 49 60 38
-5.77505 1.90532 38.0334 53 57 59
-6.759 1.25431 44.9236 57 58 54
-6.96076 0.778794 46.2646 104 160 175
-8.55726 0.326811 56.8757 17 20 27
-8.63691 0.252621 57.9388 19 22 29
-6.89664 0.842914 46.2646 110 173 220
-6.83252 0.907033 46.2646 137 155 163
-11.3032 -1.99992 76.5364 17 20 29
-6.63447 0.943003 44.9236 59 119 163
-11.0606 -2.08031 75.6031 17 19 31
-6.71826 1.79134 45.9219 16 15 20
-6.65462 0.963959 45.9219 77 105 127
-10.8238 0.0151136 74.6922 19 20 33
-12.6531 -4.21782 87.3162 65 75 57
-11.4075 -6.37284 79.4802 15 21 25
-10.2274 -10.059 71.2581 241 255 255
-10.851 -8.99582 75.6031 37 46 38
-10.1112 -10.1399 70.4483 255 255 255
-10.5926 -7.45192 73.803 26 39 43
-10.1112 -10.1399 70.4483 255 255 255
-1.6881 1.63192 11.8763 62 65 75
-10.3669 -9.28482 72.9347 24 26 28
-7.79814 0.467314 54.8624 59 80 94
-10.3669 -9.58807 72.9347 25 33 32
-10.9075 -5.89132 77.4931 31 24 24
-13.6343 -4.94765 96.8664 37 57 50
-1.63948 1.63274 11.7637 51 57 67
-12.3973 -4.96269 89.8471 54 76 58
-12.3973 -4.83817 89.8471 45 45 51
-12.5796 -5.16202 91.1684 91 107 68
-12.2728 -5.08721 89.8471 93 96 61
-1.65072 1.6773 12.0847 57 56 69
-10.7465 -0.314379 79.4802 40 51 56
-7.48419 0.394772 55.3522 50 66 84
-7.27752 0.463214 54.3812 41 63 88
-10.9163 -1.67928 81.5717 36 43 59
-7.40748 0.394772 55.3522 53 66 81
-10.2424 -8.68259 76.5364 21 23 24
-11.7292 -1.70048 88.5636 32 44 61
-10.1364 -8.04614 76.5364 20 24 25
-7.33076 0.394772 55.3522 52 67 83
-9.7886 -9.30151 74.6922 255 250 255
-9.33855 -9.07137 71.2581 255 255 255
-9.7886 -8.78392 74.6922 45 43 45
-6.58903 1.48923 50.8152 20 18 26
-9.94087 -8.03932 77.4931 21 24 28
-6.62725 1.51405 51.6621 20 21 27
-6.26196 1.83652 48.8146 26 22 23
-9.94087 -6.75052 77.4931 20 23 24
-9.94087 -8.03932 77.4931 21 24 28
-11.08 -2.88667 87.3162 20 23 32
-10.0856 -0.975302 79.4802 48 62 81
-6.61074 1.59898 52.0962 19 17 20
-10.6308 -2.65353 83.7764 17 24 31
-9.83347 -7.93192 77.4931 20 21 22
-6.12666 1.83652 48.8146 20 18 18
-9.84918 -6.07465 78.4741 96 199 255
-6.48405 1.58565 51.6621 19 18 18
-6.37775 0.996249 50.8152 80 97 134
-9.84918 -6.07465 78.4741 96 199 255
-9.61867 -7.50232 77.4931 32 35 30
-10.2599 -0.212394 82.6594 20 23 24
-6.25604 0.98815 50.4021 86 113 108
-6.41245 1.37085 51.6621 19 19 24
-1.16238 1.66319 9.36473 255 255 255
-10.5681 -5.71058 86.1035 17 19 19
-1.15463 1.65772 9.40736 255 255 255
-10.7169 -5.54898 87.3162 17 19 19
-10.7169 -1.67653 87.3162 28 28 23
-9.27929 -8.68148 75.6031 255 255 255
-9.28777 -7.30362 76.5364 56 79 49
-9.28777 -8.04614 76.5364 75 69 40
-6.71705 -7.27666 55.3522 67 171 255
-6.01848 1.72844 49.5956 17 14 19
-10.6245 -7.59214 88.5636 64 98 70
-9.65867 -0.876384 80.5124 55 66 82
-9.41415 -9.22868 78.4741 255 255 255
-6.31768 0.832752 53.9083 35 38 33
-5.95519 1.1371 50.8152 57 96 198
-6.35346 0.391278 54.8624 107 124 145
-9.99084 -6.39608 87.3162 21 24 25
-10.1336 -0.350308 88.5636 18 25 25
-10.1336 -9.06505 88.5636 89 145 208
-10.1336 -8.32859 88.5636 49 51 36
-6.22236 0.538583 54.3812 69 134 165
-10.0108 -10.1697 88.5636 255 255 255
-9.86982 -7.72723 87.3162 29 41 31
-10.4591 -2.54605 92.5291 49 58 57
-9.86982 -9.30042 87.3162 255 255 255
-10.3308 -1.3919 92.5291 30 36 37
-10.0526 -5.66743 91.1684 37 47 26
-10.5165 -4.87153 95.3762 18 19 20
-9.6278 -0.950445 87.3162 18 25 39
-9.6278 -7.96926 87.3162 37 44 39
-9.12137 0.249168 83.7764 20 20 18
-10.227 -5.57881 93.9311 23 26 24
-10.0744 -2.41781 92.5291 47 59 52
-5.57836 -6.80643 51.2351 161 183 157
-10.227 -2.58463 93.9311 56 58 57
-6.1362 0.792495 56.3587 75 78 64
-5.94991 1.16191 55.3522 52 77 94
-9.96663 -5.96936 93.9311 18 23 21
-9.5333 -0.355385 89.8471 50 77 49
-9.26475 -6.75912 87.3162 35 86 40
-9.5333 -7.57765 89.8471 136 225 255
-9.40878 -9.69452 89.8471 165 103 71
-9.40878 -7.70217 89.8471 133 111 58
-9.42079 -6.04649 91.1684 19 23 25
-9.28425 -6.08338 89.8471 20 20 26
-9.42079 -5.79379 91.1684 24 20 22
-9.15162 -7.46939 88.5636 180 143 141
-9.28425 -9.81904 89.8471 147 167 255
-3.85912 1.87088 37.3461 173 157 147
-9.28425 -6.08338 89.8471 20 20 26
-9.02888 -5.99648 88.5636 21 20 23
-3.80736 1.87088 37.3461 166 161 158
-9.57608 -2.84499 93.9311 39 52 57
-5.64305 1.54549 55.3522 19 18 21
-5.61648 1.63681 55.8509 17 19 24
-9.59122 -9.63018 95.3762 255 255 255
-9.59122 -9.49799 95.3762 255 255 255
-8.20302 -6.20139 81.5717 255 133 82
-9.60684 -2.9339 96.8664 60 63 56
-3.79529 1.86404 38.2682 186 161 151
-3.7655 1.87562 38.5059 182 170 156
-9.47259 -5.6189 96.8664 24 25 29
-10.1041 -10.5759 103.324 255 255 255
-9.33834 -1.45715 96.8664 20 21 26
-9.7976 -8.85314 101.63 102 96 89
-5.71904 0.846354 60.1889 41 126 166
-9.20409 0.0196005 96.8664 21 17 23
-9.20409 -0.114649 96.8664 20 17 21
-9.06984 -0.517399 96.8664 18 18 20
-5.63563 0.929771 60.1889 99 126 113
-5.8047 0.785824 61.9945 47 87 183
-8.9303 -0.641624 95.3762 19 18 21
-5.37472 1.12539 57.4023 53 76 120
-8.9303 -6.32556 95.3762 72 61 78
-8.93559 -0.38315 96.8664 19 18 21
-9.07742 -0.25285 98.404 18 17 20
-8.94104 -0.934755 98.404 21 19 28
-9.08525 -3.99861 99.9912 38 33 34
-8.94104 -9.52676 98.404 72 68 60
-3.45574 1.79989 38.0334 197 189 187
-3.36178 1.83015 37.5724 220 238 255
-9.92912 -5.91348 112.717 86 74 86
-8.81163 -4.34586 101.63 34 30 33
-9.26741 -5.75575 106.887 83 73 59
-5.28918 0.957664 61.9945 34 49 65
-8.39235 -11.0662 99.9912 101 74 48
-9.63566 -1.8861 114.805 58 61 65
-1.12139 1.66926 13.3609 255 255 255
-10.2025 -3.51329 121.558 45 48 47
-8.39235 -11.0662 99.9912 101 74 48
-5.01699 1.52853 60.7789 25 25 26
-8.38907 -9.13485 101.63 255 251 255
-5.11733 1.73094 61.9945 21 17 21
-9.47655 -7.77321 114.805 33 36 32
-10.034 0.0245967 121.558 27 25 27
-8.24822 -10.6842 101.63 115 80 43
-10.2682 -2.25391 126.519 61 59 63
-1.10637 1.65585 13.869 255 255 255
-4.99545 1.922 62.6207 17 16 22
-5.15156 0.550067 64.5776 126 155 250
-8.3822 -13.0852 105.075 255 255 255
-5.06206 0.550067 64.5776 151 153 249
-4.85958 1.9887 61.9945 23 18 21
-9.54731 -2.89619 123.989 65 65 68
-4.92129 1.25301 63.9119 54 40 33
-7.45884 -8.0354 96.8664 90 76 57
-4.88306 1.08707 64.5776 106 129 116
-8.37096 -7.95588 110.704 255 255 255
-4.79356 0.908067 64.5776 122 147 180
-9.58711 -2.30087 129.155 72 73 80
-7.93416 -4.42251 106.887 84 72 74
-7.54396 -10.8251 101.63 255 246 255
-8.68267 -6.29875 116.971 31 23 24
-7.30447 -11.2997 98.404 90 75 79
-7.54396 -9.41655 101.63 85 73 63
-8.52188 -8.25055 114.805 212 246 255
-4.60806 1.94162 63.2597 17 15 21
-9.40811 -0.331866 129.155 51 56 59
-5.2338 0.532704 74.6922 25 33 28
-5.2338 0.532704 74.6922 25 33 28
-6.89533 -11.2997 98.404 94 81 58
-9.05011 -3.73287 129.155 78 81 85
-8.51775 -5.87187 121.558 32 24 22
-1.08331 1.65296 15.46 255 255 255
-7.36281 -8.86199 105.075 238 179 143
-8.18872 -8.40265 119.22 249 208 212
-4.62841 1.5079 67.3853 21 21 26
-8.51627 0.0250886 123.989 62 64 67
-6.62256 -12.2544 98.404 73 87 64
-6.62256 -12.2544 98.404 73 87 64
-6.62256 -10.2087 98.404 94 87 91
-6.48618 -9.52676 98.404 127 176 255
-5.06377 0.994714 78.4741 64 97 130
-6.55799 -13.5013 101.63 255 255 255
-6.21342 -11.0269 98.404 62 56 43
-3.8757 2.05408 61.3807 101 95 89
-6.52409 -4.41829 103.324 64 72 55
-6.63467 -12.5027 105.075 133 118 110
-6.17506 -8.15602 99.9912 83 55 47
-5.94066 -6.38999 98.404 58 54 47
-3.89856 2.16107 64.5776 127 101 90
-4.15206 1.6131 72.0867 20 16 21
-6.73731 -5.32607 116.971 40 36 35
-4.15206 1.6131 72.0867 20 16 21
-7.43911 -4.26987 129.155 38 42 35
-4.15206 1.6131 72.0867 20 16 21
-4.05216 1.6131 72.0867 18 18 21
-7.57577 -0.71986 134.771 72 69 58
-4.24982 1.16788 75.6031 54 69 77
-4.19862 1.46437 74.6922 25 35 58
-5.90653 -11.3377 105.075 74 87 89
-4.14864 1.54922 73.803 23 19 22
-5.86023 -12.5701 106.887 73 80 58
-6.41308 -8.56833 116.971 164 156 232
-5.52169 -13.0103 103.324 74 73 75
-5.52169 -13.0103 103.324 74 73 75
-8.2746 -12.0848 158.96 254 228 227
-6.45419 -5.13011 123.989 50 74 84
-5.37849 -9.85989 103.324 72 54 47
-6.58591 -0.675787 126.519 69 66 38
-8.05429 -12.0848 158.96 51 149 174
-6.54411 -11.2509 129.155 95 68 51
-3.75865 0.777195 78.4741 122 198 196
-5.39879 0.335244 112.717 35 37 42
-3.57751 1.87844 74.6922 29 52 67
-0.933144 1.67241 20.063 255 255 255
-4.97141 -12.1257 106.887 106 134 255
-5.44041 -0.138445 116.971 36 38 38
-3.33035 1.85608 73.803 22 20 67
-0.923266 1.64881 20.4602 255 251 255
-6.30599 0.0291728 144.173 56 63 58
-5.64911 -2.30087 129.155 28 30 31
-5.64911 -3.37487 129.155 30 32 34
-5.64911 -2.83787 129.155 32 30 31
-5.64911 -2.12187 129.155 27 30 32
-5.89473 -0.71986 134.771 33 40 33
-5.25131 -10.4572 123.989 255 244 180
-4.30464 -13.3764 105.075 254 255 255
-0.857977 1.65669 21.6764 254 255 255
-4.02265 -13.0787 101.63 255 255 255
-3.15719 0.933206 82.6594 30 53 106
-4.22838 -7.03531 110.704 39 33 36
-4.93311 -6.23887 129.155 167 186 217
-4.14905 -13.0995 112.717 99 74 81
-3.04263 1.04777 82.6594 89 83 86
-3.04263 0.933206 82.6594 128 117 128
-4.65709 -4.70877 126.519 67 62 56
-2.81546 1.8887 79.4802 73 59 40
-2.77982 1.97355 78.4741 46 41 41
-4.48175 -10.8459 126.519 41 37 36
-2.28756 2.16107 64.5776 177 150 149
-5.02413 -1.40213 147.606 106 133 156
-4.05795 -14.351 119.22 77 96 73
-3.90766 -13.0239 114.805 66 62 67
-5.02413 -1.19756 147.606 195 222 255
-4.13752 -6.04034 121.558 43 71 52
-3.81927 -5.81241 116.971 59 72 96
-3.81927 -5.81241 116.971 59 72 96
-3.52417 -5.60105 112.717 236 224 160
-3.68011 -3.91187 129.155 53 35 46
-3.68011 -4.80687 129.155 26 35 39
-2.80089 -12.8671 103.324 255 255 255
-3.05552 -9.97516 112.717 39 38 30
-3.36107 0.884289 123.989 28 28 30
-3.17082 0.996348 116.971 29 28 28
-2.27802 1.98181 88.5636 142 157 159
-2.31104 1.38792 89.8471 50 53 44
-2.21867 1.91374 91.1684 161 140 103
-3.35266 -2.83612 137.766 34 32 29
-2.74308 -12.6309 112.717 65 54 57
-0.632344 1.6476 27.5531 192 241 248
-2.90362 -14.7035 126.519 83 73 41
-3.02718 0.02669 131.903 252 255 255
-2.19157 -10.2617 101.63 39 45 38
-3.10897 0.0291728 144.173 255 255 255
-2.62128 -13.9585 121.558 62 63 60
-2.15622 -9.95757 99.9912 35 44 31
-2.60611 -0.689866 129.155 62 79 89
-2.58892 -1.11772 137.766 138 150 162
-1.9746 -10.7551 105.075 52 39 41
-1.86051 1.20673 106.887 215 220 246
-1.80577 -13.7244 112.717 255 255 255
-1.77893 -13.9585 121.558 103 81 57
-1.89011 -0.331866 129.155 74 82 83
-1.64267 -10.8008 123.989 46 37 37
-1.95556 -2.22042 147.606 37 24 27
-1.10084 -8.57074 105.075 181 142 95
-1.15981 -8.72303 110.704 62 68 55
-1.66537 -3.27245 158.96 44 37 34
-1.11982 1.65115 106.887 87 69 57
-1.12715 -12.6911 123.989 46 42 40
-1.17411 -13.5779 129.155 50 83 49
-1.10505 -8.23046 121.558 72 66 37
-1.48309 -3.35857 163.143 44 43 37
-0.936579 -14.2954 121.558 255 254 252
-0.171806 1.69649 34.8284 219 223 234
-0.784141 -2.17091 158.96 80 94 74
-0.624112 -13.4761 126.519 78 71 67
-0.448765 -11.5473 126.519 64 44 34
-0.326768 -3.11282 151.206 30 40 34
-0.0961101 1.05613 123.989 65 137 206
0.0757299 -13.3784 123.989 106 92 63
0.0788853 -11.0719 129.155 84 186 203
0.386828 -0.229299 193.733 148 198 148
0.32575 -5.61962 163.143 94 66 50
0.551855 -5.61962 163.143 95 66 48
0.436885 -9.99787 129.155 30 40 37
0.39567 -11.8106 116.971 255 255 227
0.59125 -9.25427 123.989 38 39 36
0.615885 -6.95487 129.155 32 36 29
1.12219 -4.0064 182.337 58 52 46
0.93493 -8.91059 123.989 35 34 28
0.973885 -6.95487 129.155 42 41 29
1.16866 1.53496 154.986 37 44 40
0.878389 -13.0727 98.404 79 172 255
1.41894 1.57432 158.96 43 38 39
1.20624 -11.9727 116.971 255 255 255
1.34301 -7.45499 114.805 45 45 49
1.36835 -12.1348 116.971 255 255 255
1.31859 -7.63188 112.717 31 33 40
1.45045 -11.3164 123.989 56 68 67
1.59048 -8.73587 121.558 45 40 29
2.53483 0.576201 193.733 63 123 117
2.53483 0.039201 193.733 150 135 101
2.80333 -1.5718 193.733 114 123 108
2.71838 -3.08635 187.862 65 41 35
1.31921 1.91374 91.1684 177 161 149
2.97874 -3.34671 187.862 51 43 36
2.65672 -4.61042 167.553 38 33 32
1.87527 -8.26852 108.762 40 34 29
1.11344 1.89257 64.5776 228 208 192
2.02601 -8.26852 108.762 37 35 34
2.58489 -8.20787 129.155 43 39 29
1.3677 1.87306 63.9119 232 215 190
2.71651 -10.2202 119.22 255 255 253
4.15466 1.30042 182.337 65 72 49
3.12189 -6.95487 129.155 72 66 56
2.88174 -10.2202 119.22 255 255 255
4.68283 -1.0348 193.733 56 63 52
5.11105 0.594788 199.982 49 57 81
4.80129 -4.12781 187.862 61 55 37
1.77696 1.84143 65.9516 150 182 206
4.77241 1.75424 177.127 28 33 30
4.18678 -12.0784 140.897 255 255 255
5.58238 -5.95035 187.862 73 56 40
8.38307 -1.06616 269.541 27 29 29
6.49685 0.594788 199.982 146 150 148
6.49685 0.594788 199.982 146 150 148
1.89184 -7.57443 55.8509 115 200 255
8.72723 -1.48948 221.409 70 44 39
7.63633 -6.6733 193.733 30 33 36
7.90483 -5.3308 193.733 26 30 27
7.90483 -6.1363 193.733 31 32 30
18.6819 -21.3904 442.818 99 157 96
15.0077 0.0696907 344.414 24 24 30
17.4207 1.1524 387.466 28 26 38
25.3391 -26.4431 563.587 93 97 76
9.90767 -6.77109 213.774 28 30 30
11.8366 -9.91654 247.978 82 79 51
11.9145 -2.81754 229.609 37 32 28
13.0336 -5.90006 238.44 59 49 38
17.8355 0.518233 326.287 27 28 35
17.8355 0.0660227 326.287 28 28 34
18.2877 -2.19503 326.287 62 45 36
18.7399 0.518233 326.287 25 34 38
19.781 0.0696907 344.414 28 28 40
18.2325 0.492322 309.973 47 39 39
17.3643 -9.35055 295.212 43 40 37
17.7735 -4.03169 295.212 28 29 30
15.0164 1.70056 238.44 30 33 31
18.1372 -5.02007 281.793 30 33 30
18.1372 -5.02007 281.793 30 33 30
23.1224 -1.36231 344.414 56 67 64
32.0156 -25.6795 476.881 255 255 255
26.5497 -1.5326 387.466 133 213 255
3.43958 1.64653 49.202 197 192 201
25.4933 -11.0453 364.674 65 66 55
4.37764 1.74843 62.6207 209 206 195
28.8924 -29.1292 413.297 255 255 255
23.262 -18.9268 326.287 255 255 255
3.45296 -4.35332 48.4332 45 54 67
3.45296 -4.35332 48.4332 45 54 67
4.25067 1.71402 58.4854 215 200 202
26.5041 -14.5832 364.674 57 63 77
29.2347 -14.9576 387.466 31 40 57
2.52572 1.61753 32.2888 114 129 157
35.2522 -3.59268 442.818 95 124 141
35.8659 -3.59268 442.818 86 121 179
26.4275 -13.9525 326.287 255 255 255
3.74718 1.74059 46.2646 153 153 112
31.9197 -12.8096 387.466 63 69 87
30.042 -7.00197 364.674 52 44 40
34.6204 -3.35317 413.297 79 97 114
30.5474 -13.5723 364.674 37 42 45
35.1932 -3.35317 413.297 71 95 128
38.3208 -14.0258 442.818 64 96 106
33.5307 -13.8836 387.466 40 56 87
2.15458 1.5233 24.8974 243 204 167
32.0637 0.579202 364.674 31 35 45
38.9345 -11.571 442.818 88 104 117
6.75213 1.69179 75.6031 214 215 218
2.06331 1.60221 21.7525 225 225 216
37.8267 -0.995598 387.466 28 35 39
37.8267 -0.995598 387.466 28 35 39
35.6016 -3.46409 364.674 28 39 41
35.6016 -1.94786 364.674 28 36 40
21.1662 -8.54874 213.774 255 255 255
1.84145 1.60518 18.3416 255 222 202
5.48698 1.72931 53.9083 152 85 75
13.5039 1.63713 129.155 160 197 223
2.05243 1.53437 19.3733 142 110 78
59.7071 -23.3187 563.587 255 255 255
54.7315 -22.0915 516.621 255 255 255
59.7071 -23.3187 563.587 255 255 255
15.4737 1.42787 144.173 210 216 224
14.1568 1.48916 131.903 234 228 218
60.4882 -24.0998 563.587 255 255 255
8.31713 1.73408 77.4931 172 149 150
1.52017 1.64848 13.8072 169 113 88
1.90398 1.61298 17.0784 255 240 207
1.54274 1.65216 13.8381 149 118 89
4.43043 1.5502 39.7401 114 97 42
3.41336 1.59878 30.2412 157 80 61
5.28605 1.54823 46.2646 9 18 30
1.76641 1.63154 15.46 244 237 216
6.1594 1.57988 53.9083 15 18 24
5.95236 1.59898 52.0962 17 19 26
1.83356 1.60734 15.8554 225 214 192
6.40109 1.6222 55.3522 28 19 20
6.07561 1.61253 52.5377 30 26 26
2.38656 1.53034 20.3929 205 149 145
1.8229 1.60066 15.5765 244 243 207
1.83527 1.59266 15.4986 254 250 218
2.79128 1.73624 23.5721 175 135 139
2.12229 1.53263 17.5126 176 123 87
22.0968 -1.98475 182.337 74 28 19
15.3695 1.74349 123.989 87 69 58
6.1478 1.59096 49.5956 106 65 57
1.79132 1.64522 14.4509 250 238 248
6.28527 1.59096 49.5956 87 83 65
1.64782 1.64257 12.8619 249 231 211
1.90926 1.55205 14.9025 88 88 94
1.734 1.61719 13.3897 217 186 152
4.15981 -4.31176 32.1215 255 166 176
10.2713 1.64727 78.4741 191 155 113
2.15786 1.56952 16.1444 179 184 180
1.87295 1.54052 13.869 78 87 94
1.89218 1.54052 13.869 91 87 84
1.5185 1.63735 11.1301 115 103 111
7.3548 1.6546 53.9083 67 53 47
1.5185 1.63735 11.1301 115 103 111
1.66874 1.63023 12.1083 224 221 206
1.7837 1.58111 12.9425 248 225 208
1.72257 1.57888 12.4989 213 202 193
1.72597 1.60062 12.3989 230 212 179
1.47016 1.62686 10.5612 103 111 103
17.6034 1.57165 123.989 51 68 74
9.56707 1.60129 67.3853 113 85 45
10.5805 1.65151 73.803 29 26 32
28.6698 -11.3231 199.982 255 255 255
1.74953 1.5585 12.2036 249 239 213
33.2354 -12.3642 229.609 255 255 255
1.47107 1.63594 10.163 68 90 90
2.94215 1.60983 20.3261 51 54 65
43.1403 -15.4877 295.212 255 255 255
2.96061 1.60457 20.2596 69 79 64
2.59076 1.60999 17.5622 117 99 117
3.04664 1.5921 20.4602 41 31 30
13.1876 1.61358 88.5636 177 213 218
1.97818 1.53499 13.1623 154 139 103
6.16173 1.45874 40.2562 170 172 138
15.8151 0.450507 103.324 255 243 219
2.45195 1.57955 16.0193 84 66 70
14.9609 0.42235 96.8664 254 255 244
14.4193 0.403439 92.5291 255 236 255
13.4179 -1.89191 86.1035 255 248 255
1.73445 1.56023 11.1301 235 234 210
81.2235 -19.9435 516.621 215 239 255
2.51856 1.71276 16.0193 158 177 77
61.4547 -14.4206 387.466 200 194 205
30.7273 -9.6268 193.733 106 145 157
1.59464 1.64582 9.96696 246 243 231
14.3749 -0.355385 89.8471 40 49 60
15.0283 -0.631903 93.9311 40 60 66
1.60496 1.64257 10.0315 242 239 215
35.7307 -12.8432 221.409 146 139 65
17.1026 -3.03691 105.075 65 51 32
1.69874 1.65108 10.4368 199 207 174
15.5239 -1.6991 95.3762 56 64 58
19.4048 -1.29772 119.22 41 48 52
17.8534 -1.48536 108.762 37 45 59
14.5378 0.999863 88.5636 18 16 19
2.85855 1.59642 17.4142 52 48 37
14.2533 1.09142 86.1035 17 13 16
48.8683 -20.8066 295.212 255 255 255
42.7598 -13.5517 258.311 255 255 255
1.49379 1.64018 9.02395 109 79 73
1.50193 1.64789 8.99775 103 99 64
49.2775 -20.3974 295.212 255 255 255
15.4452 0.0187229 92.5291 89 93 70
2.39866 1.56327 14.2516 47 57 59
2.13815 1.53434 12.7038 250 197 159
1.73038 1.59794 10.281 226 236 215
2.13815 1.53434 12.7038 250 197 159
1.73599 1.59003 10.2301 238 248 231
2.07497 1.51073 12.2277 166 200 142
10.7348 -8.49153 63.2597 255 255 255
44.1918 -12.1197 258.311 65 79 83
11.0479 -7.23643 64.5776 255 255 255
9.38586 -8.96108 54.8624 255 255 255
53.0301 -12.8253 309.973 76 67 56
15.1515 0.263406 88.5636 154 121 76
48.2092 -9.70662 281.793 49 66 66
10.0867 -8.82334 58.4854 255 255 255
46.4867 -10.0317 269.541 71 72 69
18.7578 -1.18389 108.762 32 35 52
36.8688 -12.9929 213.774 85 76 68
18.2676 -2.30877 105.075 110 190 255
34.7673 -9.38302 199.982 80 113 108
11.7151 1.4145 67.3853 107 77 61
15.3969 1.12261 88.5636 14 16 19
15.3969 1.12261 88.5636 14 16 19
1.50677 1.65817 8.59841 130 87 69
36.2126 -15.4238 206.648 138 122 98
9.52964 -8.50563 54.3812 45 74 85
11.0855 -6.73806 63.2597 138 158 117
9.2066 -9.67357 52.5377 255 255 255
10.7562 -7.64382 61.3807 123 166 71
4.97714 1.60694 28.1793 23 49 37
11.7739 -6.63838 66.6608 255 255 255
33.1809 -9.85581 187.862 131 218 183
10.8413 -8.91986 61.3807 63 89 90
1.9043 1.51139 10.7817 85 73 52
9.51347 -9.09967 53.4436 72 54 29
26.2753 -14.4947 147.606 255 255 255
15.3273 1.09142 86.1035 15 13 17
9.43216 -10.1969 52.9868 57 59 66
34.4863 -15.8023 193.733 198 226 139
1.88643 1.52961 10.5974 89 76 60
1.8929 1.52012 10.6337 70 68 53
9.43216 -9.09533 52.9868 78 44 34
17.5169 -2.43495 98.404 168 144 134
16.5993 -1.00719 92.5291 32 37 47
34.7548 -13.3858 193.733 244 255 241
16.1182 1.01435 89.8471 14 15 15
2.46597 1.58401 13.746 112 47 34
16.5993 -1.00719 92.5291 32 37 47
16.3552 -0.73967 91.1684 26 28 30
16.1182 1.01435 89.8471 14 15 15
1.6165 1.65029 9.01083 197 200 182
10.1886 -11.3144 56.3587 255 255 254
16.4816 -0.73967 91.1684 26 29 33
3.43787 1.55884 19.0167 42 40 36
16.4816 1.02927 91.1684 13 14 18
16.7276 -1.26367 92.5291 31 35 42
11.4075 -6.58321 62.6207 253 255 254
10.6541 -8.58017 58.4854 100 79 54
17.5066 -1.56692 95.3762 20 26 34
10.9416 -7.91901 59.6101 255 230 209
1.97557 1.52368 10.7629 71 56 42
30.7549 -14.5957 167.553 99 75 57
1.72929 1.56996 9.35061 240 228 210
9.47539 -9.50474 51.2351 80 84 50
16.8606 1.02927 91.1684 15 19 16
1.72409 1.59108 9.32248 200 208 184
11.5511 -6.94698 61.9945 103 113 80
1.68876 1.63482 9.06353 245 253 255
10.3135 -8.27394 55.3522 29 43 30
10.1326 -8.88247 54.3812 81 117 93
16.6244 0.508892 88.5636 97 72 51
1.96241 1.55244 10.4544 219 198 164
10.8758 -7.13489 57.9388 255 252 255
27.0629 -12.1595 144.173 43 72 40
16.6244 1.12261 88.5636 21 20 21
10.3902 -8.27394 55.3522 48 41 30
9.53858 -9.63811 50.8152 35 67 59
10.2833 -8.73173 54.3812 25 35 25
9.30396 -9.6049 49.202 56 71 72
15.8419 1.17803 83.7764 18 16 23
15.7452 -0.670634 82.6594 61 93 78
16.8699 1.12261 88.5636 23 24 26
25.1253 -6.92003 131.903 68 96 66
10.2686 -8.73052 53.9083 21 42 32
1.51334 1.65222 7.88734 111 104 114
10.6204 -8.5808 55.3522 230 255 255
1.66399 1.64854 8.61035 104 90 59
10.8916 -5.76867 56.3587 180 234 246
10.6971 -8.50409 55.3522 176 123 47
26.0451 -8.00438 134.771 27 29 24
19.3238 0.851717 99.9912 29 34 27
10.6971 -5.74237 55.3522 156 172 221
33.2798 -0.442488 172.207 73 79 74
2.84578 1.57444 14.7255 74 30 37
27.4242 -4.85331 140.897 34 72 45
1.60035 1.65397 8.22208 219 214 197
10.8709 -8.03886 55.8509 206 219 235
30.1667 -6.84224 154.986 24 37 27
10.9483 -7.34221 55.8509 64 78 31
30.3815 0.460961 154.986 175 133 134
1.89884 1.51899 9.68664 162 173 202
2.80057 1.59544 14.1864 70 66 59
14.925 1.27266 75.6031 151 130 100
2.00961 1.56809 10.1797 112 179 114
38.2453 -1.3033 193.733 89 114 74
10.9272 -6.50951 55.3522 50 65 28
1.71889 1.60751 8.64638 137 151 145
24.6488 -10.8008 123.989 35 38 32
10.9066 -7.2883 54.8624 35 67 38
9.70427 -8.71743 48.8146 36 43 31
7.51489 1.57936 37.8015 42 29 36
31.0259 -7.27184 154.986 23 26 25
10.0083 -8.23543 49.9956 101 77 50
31.0259 -7.27184 154.986 23 26 25
9.84948 -7.42281 49.202 63 111 34
9.77192 -8.71743 48.8146 31 24 18
15.5129 1.19708 77.4931 160 181 123
9.92828 -7.41345 49.5956 57 67 26
1.58295 1.64548 7.90746 236 222 203
1.84583 1.52481 9.15724 118 105 87
28.4006 -8.36822 140.897 103 99 68
1.70714 1.64499 8.4692 247 214 178
10.6806 -7.11256 52.9868 26 24 18
18.1105 -7.70217 89.8471 27 35 35
11.5706 -6.19372 57.4023 79 86 71
32.8849 -7.20236 163.143 34 46 28
10.6806 -7.11256 52.9868 26 24 18
18.3769 -7.68908 91.1684 37 43 40
1.85956 1.52337 9.22538 87 96 95
29.2609 -4.36673 144.173 23 32 23
2.80852 1.55626 13.8381 28 27 30
26.7706 -8.56531 131.903 49 62 55
11.87 -5.9053 58.4854 23 31 34
1.72121 1.54266 8.42317 240 223 190
14.0757 1.255 68.8828 163 143 115
12.1467 -5.96154 59.0424 30 65 28
10.8085 -7.1251 52.5377 22 42 32
2.30217 1.56868 11.1903 200 187 161
29.6605 0.628615 144.173 186 166 170
38.6486 -0.482714 187.862 191 144 112
14.1711 1.255 68.8828 169 143 116
10.0312 -7.30682 48.4332 161 219 99
9.95345 -7.91623 48.0578 145 140 91
2.11183 1.54241 10.1965 182 148 108
10.6115 -7.16147 51.2351 25 36 28
10.0983 -7.97807 48.4332 158 116 102
3.67212 1.66338 17.6121 59 49 34
39.1693 -0.743078 187.862 219 143 110
3.50294 1.61003 16.8007 64 35 28
1.69631 1.5464 8.13576 172 162 133
10.0983 -7.10545 48.4332 67 35 20
38.0173 0.0368951 182.337 230 152 105
39.1693 -0.222351 187.862 241 153 122
10.0201 -8.64888 48.0578 203 209 150
39.1693 -3.08635 187.862 42 43 25
2.52656 1.554 12.0378 56 50 63
30.9804 -11.4261 147.606 76 116 54
11.3146 -6.26499 53.9083 22 31 23
11.3893 -6.26499 53.9083 32 32 23
11.6944 -5.12866 55.3522 117 137 67
11.6944 -5.12866 55.3522 117 137 67
11.6944 -5.97251 55.3522 40 64 27
31.9456 -4.37018 151.206 100 121 70
11.0997 -7.1251 52.5377 29 34 22
2.92359 1.51791 13.8381 125 84 54
2.09597 1.54555 9.85604 255 232 192
32.1552 -4.57975 151.206 74 167 127
30.6596 0.628615 144.173 178 149 148
2.79314 1.54995 13.1344 30 34 61
1.98549 1.55466 9.33652 171 149 154
2.79359 1.54016 13.0515 31 29 18
10.1294 -8.1889 47.3241 32 38 25
10.1294 -8.1889 47.3241 32 38 25
10.2865 -7.38339 48.0578 20 28 21
1.85329 1.52575 8.65845 106 87 72
10.2734 -7.39269 47.6881 29 52 18
27.8239 -7.31287 129.155 20 29 26
6.4209 1.4518 29.8051 59 45 39
27.2561 -8.21571 126.519 24 35 29
1.8837 1.54082 8.74394 86 88 73
11.2231 -5.40458 52.0962 27 32 26
2.22909 1.54095 10.281 192 177 158
21.6797 0.297394 99.9912 73 93 93
11.7907 -6.99826 54.3812 170 160 153
1.58507 1.65301 7.31067 232 224 190
25.5232 -4.83973 116.971 24 24 22
11.5618 -6.89225 52.9868 87 140 224
1.50806 1.64892 6.91132 79 57 74
22.1759 -0.542845 101.63 231 237 124
10.7191 -6.89078 48.8146 38 40 29
10.7191 -6.89078 48.8146 38 40 29
12.0471 -4.70309 54.8624 21 24 19
10.6353 -6.90407 48.4332 43 47 19
21.2707 0.69085 96.8664 48 46 48
20.6261 0.27937 93.9311 37 106 167
2.84201 1.54523 12.9425 161 125 97
27.7821 -6.28689 126.519 84 99 48
12.0471 -4.70309 54.8624 21 24 19
3.88078 1.65867 17.5622 102 70 46
10.0729 -8.26689 45.5842 46 82 44
10.6195 -5.98469 48.0578 161 136 66
10.7025 -6.83695 48.4332 71 52 25
9.8555 -7.96485 44.6004 150 145 89
21.4049 0.556601 96.8664 32 53 51
10.7696 -5.6287 48.4332 142 126 99
10.7696 -4.95745 48.4332 100 88 72
10.2112 -7.81897 45.9219 22 28 22
2.85405 1.49686 12.8353 110 84 63
10.2112 -7.81897 45.9219 22 28 22
16.8111 -1.55641 75.6031 21 26 24
16.8111 -1.55641 75.6031 21 26 24
16.8111 -1.66119 75.6031 28 29 25
10.7696 -5.6287 48.4332 142 126 99
16.6085 -4.43616 74.6922 75 95 90
10.3515 -7.42849 46.2646 122 122 111
10.3515 -7.42849 46.2646 122 122 111
14.4489 -2.31393 64.5776 28 32 20
2.04889 1.5375 9.15724 55 70 65
15.0074 -3.95916 66.6608 106 93 57
2.81389 1.56156 12.4989 19 18 24
2.81389 1.56156 12.4989 19 18 24
10.8193 -6.38432 48.0578 22 27 23
14.6279 1.08707 64.5776 123 135 90
1.9423 1.53475 8.57462 97 141 153
14.1287 -0.331136 61.9945 38 51 72
14.4171 -0.162547 63.2597 89 93 107
10.9525 -4.91902 48.0578 27 27 26
4.52844 1.60125 19.87 44 33 39
9.88024 -7.74205 43.3528 32 30 24
11.0381 -4.48757 48.4332 71 116 86
10.3005 -8.52065 44.9236 28 27 12
14.0739 1.11832 61.3807 140 145 95
10.5294 -8.77364 45.9219 33 39 15
11.1926 -4.52291 48.8146 149 110 88
14.8069 0.371067 64.5776 202 137 132
13.1198 -0.303794 56.8757 199 159 104
10.4384 -7.51668 45.2515 123 135 56
13.0005 -1.86321 56.3587 60 99 34
10.4384 -7.51668 45.2515 123 135 56
10.7523 -6.06311 46.6124 145 148 98
1.82638 1.53785 7.91756 117 96 81
10.8169 -6.70912 46.6124 147 176 88
11.0665 -5.5421 47.6881 77 52 56
1.79159 1.53164 7.72036 117 116 101
1.725 1.55713 7.4334 242 223 207
13.4453 -1.27306 57.9388 105 136 76
12.4022 -2.5816 53.4436 78 66 55
2.24089 1.5544 9.65647 254 221 143
2.88295 1.56001 12.3495 136 114 95
11.4861 -5.3089 49.202 89 107 47
2.58898 1.57002 11.0903 127 98 74
13.2775 -1.32853 56.8757 72 62 43
12.3696 -4.39543 52.9868 27 32 23
10.8815 -5.93391 46.6124 91 95 75
10.8003 -6.72318 46.2646 104 90 96
10.964 -5.91377 46.9655 100 144 78
3.47895 1.63467 14.9025 110 44 45
10.964 -5.91377 46.9655 100 144 78
12.7705 -3.83279 54.3812 67 123 58
2.90007 1.52578 12.3495 101 92 70
2.07089 1.54174 8.81857 92 78 84
10.7047 -7.25607 45.5842 79 82 106
10.2524 -7.9781 43.6581 102 83 55
10.784 -6.67337 45.9219 103 60 39
12.6594 -3.94888 53.9083 82 113 64
10.9286 -5.76138 46.2646 108 154 59
10.3129 -7.9781 43.6581 107 100 37
10.4602 -7.72384 44.2818 19 23 19
13.193 -2.00124 55.8509 108 133 62
10.6892 -9.02185 45.2515 102 143 151
12.8458 -3.68205 54.3812 164 155 58
13.193 -2.00124 55.8509 108 133 62
2.77405 1.55572 11.6751 34 25 21
2.77405 1.55572 11.6751 34 25 21
6.51778 1.52626 27.4312 60 36 24
13.152 -3.67109 55.3522 146 122 123
13.0356 -0.901324 54.8624 61 77 68
11.5751 -7.44107 48.4332 19 20 17
13.7186 -1.49994 57.4023 28 31 29
2.20806 1.53844 9.23912 19 31 39
11.31 -5.43421 47.3241 29 33 25
12.8836 -2.60405 53.9083 65 76 45
11.4631 -5.47601 47.6881 30 39 25
10.7209 -7.77941 44.6004 67 81 33
11.2045 -7.80735 46.6124 19 21 18
12.9583 -2.67876 53.9083 96 94 41
11.4631 -5.07946 47.6881 24 29 20
11.2894 -6.36941 46.9655 24 28 24
13.1876 -2.87824 54.8624 58 106 62
13.3054 0.164629 55.3522 45 48 48
11.2894 -6.36941 46.9655 24 28 24
3.52658 1.57984 14.5869 68 66 67
14.1396 0.57923 58.4854 32 39 27
13.2637 -2.42203 54.8624 65 86 77
11.9904 -7.75713 49.5956 20 33 30
13.8777 0.807171 57.4023 47 41 63
13.3821 0.0879146 55.3522 27 29 29
2.34553 1.5617 9.7018 59 79 60
3.05758 1.48392 12.575 41 42 34
1.95764 1.55265 8.05124 255 240 253
11.3337 -5.5463 46.6124 16 27 18
10.6154 -7.79657 43.6581 22 26 21
14.0877 0.734415 57.9388 22 25 16
13.3397 -1.58564 54.8624 11 22 19
14.2206 0.57923 58.4854 18 18 22
4.47296 1.60994 18.396 46 33 28
4.47296 1.60994 18.396 46 33 28
13.5801 -0.994969 55.8509 112 119 61
13.5801 -0.220915 55.8509 23 38 31
13.4588 -2.1368 55.3522 29 39 26
13.5801 -0.994969 55.8509 112 119 61
13.5355 0.0879146 55.3522 29 38 42
13.0688 -3.32229 53.4436 27 32 17
13.2981 -1.57173 54.3812 15 19 16
2.05696 1.54057 8.41174 116 175 147
11.7518 -4.78581 48.0578 18 22 14
13.0688 -3.39636 53.4436 27 31 29
13.6575 -0.29832 55.8509 25 22 20
13.2981 -1.6471 54.3812 19 17 14
13.2981 -1.6471 54.3812 19 17 14
2.19996 1.5392 8.94582 33 39 70
11.8184 -4.05316 48.0578 19 22 17
11.8184 -4.71921 48.0578 20 19 12
13.8123 0.243517 55.8509 20 19 15
2.80799 1.52872 11.3543 137 115 99
13.3318 -1.70749 53.9083 21 22 15
11.6149 -5.84868 46.9655 96 131 90
11.6149 -5.84868 46.9655 96 131 90
2.81856 1.49451 11.3336 122 88 74
11.0125 -8.64441 44.2818 39 34 21
12.045 -6.76982 48.4332 71 53 19
13.6438 -0.597182 54.8624 21 14 16
11.7691 -5.95891 47.3241 125 80 37
11.9516 -4.6526 48.0578 21 27 17
2.81856 1.49451 11.3336 122 88 74
11.9257 -5.14555 47.6881 64 101 88
11.9257 -5.21164 47.6881 50 87 58
11.8347 -7.79537 47.3241 17 21 18
13.7199 -0.521147 54.8624 21 16 17
2.01868 1.54551 8.0722 177 131 98
15.0519 0.762936 60.1889 185 131 75
11.2344 -8.95648 44.9236 24 25 18
11.8347 -7.0739 47.3241 20 23 19
1.91751 1.52337 7.6254 244 194 238
13.7959 -0.521147 54.8624 20 22 17
12.6743 -2.08541 50.4021 23 29 38
12.4715 -1.63963 49.5956 38 61 62
11.2772 -7.96485 44.6004 20 34 22
11.9659 -8.12331 47.3241 54 62 56
4.45321 1.59015 17.6121 25 32 24
2.75974 1.56026 10.9145 66 44 38
12.2463 -2.74232 48.4332 117 66 39
16.3284 -1.59793 64.5776 44 46 33
2.08171 1.53065 8.233 195 174 141
2.76513 1.55479 10.8762 23 29 34
12.218 -7.71642 48.0578 30 55 27
12.3135 -2.87657 48.4332 36 105 76
12.218 -6.51753 48.0578 14 21 16
12.218 -3.85335 48.0578 105 104 73
12.2846 -4.85242 48.0578 14 13 12
12.1901 -8.91281 47.6881 105 171 255
16.3373 0.544396 63.9119 214 169 162
12.5771 -2.99043 49.202 64 92 65
16.1706 0.626515 63.2597 205 195 211
15.6902 0.267628 61.3807 197 171 145
14.6733 0.170726 57.4023 199 148 128
12.0054 -5.78359 46.9655 22 25 31
12.3806 -1.8697 48.4332 22 26 12
12.3806 -3.95057 48.4332 75 91 78
11.63 -8.70827 45.2515 52 77 69
13.5026 -1.37283 52.5377 20 26 22
2.35001 1.56058 9.14373 53 57 56
13.8548 1.1316 53.9083 102 125 90
2.35348 1.55019 9.15724 21 28 49
11.4421 -8.58304 44.2818 94 96 56
12.5148 -2.27245 48.4332 100 107 51
12.5148 -2.27245 48.4332 100 107 51
14.3794 -0.909371 55.3522 86 65 51
1.71694 1.52188 6.60922 250 232 212
14.6408 0.167622 56.3587 251 109 80
14.3794 -0.909371 55.3522 86 65 51
11.2622 -7.80214 43.3528 92 119 105
13.7649 -7.62661 52.9868 42 78 80
12.2658 -4.87231 46.9655 58 89 65
11.8181 -5.00807 45.2515 18 18 20
12.3594 -1.49894 47.3241 119 109 70
2.02893 1.53047 7.76874 134 170 195
11.5649 -7.66247 44.2818 29 23 17
13.2712 -4.84913 50.8152 68 89 78
12.9181 -3.67233 49.202 15 24 22
4.45938 1.60414 16.9848 37 29 20
4.45938 1.60414 16.9848 37 29 20
2.81118 1.53062 10.7072 138 112 91
12.5206 -1.57657 47.6881 104 88 55
12.6842 -6.18451 48.0578 12 20 22
2.81145 1.50797 10.652 125 97 77
12.7833 -6.29995 48.4332 15 20 16
2.3714 1.55834 8.98471 193 140 95
1.89383 1.5329 7.17529 23 57 63
2.79263 1.49005 10.5254 119 92 77
1.91485 1.53182 7.21706 62 32 42
12.8505 -2.60807 48.4332 27 34 21
2.21978 1.54385 8.36633 47 102 132
2.21978 1.54385 8.36633 47 102 132
11.5025 -8.58323 43.3528 142 164 171
10.0912 1.3782 38.0334 71 39 25
12.8505 -4.21907 48.4332 105 47 62
10.0912 1.3782 38.0334 71 39 25
14.6862 0.778343 55.3522 31 30 38
14.763 0.778343 55.3522 28 20 17
2.71949 1.55654 10.1965 51 36 17
13.0193 -1.74911 48.8146 85 69 47
13.0193 -1.74911 48.8146 85 69 47
2.02133 1.52457 7.57879 78 57 53
11.7045 -7.55455 43.6581 18 31 17
14.9734 -0.220915 55.8509 18 21 24
1.75506 1.50742 6.54641 115 87 63
2.21902 1.5503 8.27697 79 62 45
6.20165 1.51149 23.1323 61 45 30
13.0869 -1.74911 48.8146 90 97 41
2.73362 1.54241 10.1965 19 28 36
13.0869 -1.74911 48.8146 90 97 41
13.0869 -7.02609 48.8146 15 19 19
14.9164 -0.372371 55.3522 22 21 22
14.9164 -0.5258 55.3522 21 18 21
13.0518 -1.39982 48.4332 46 34 19
4.55214 1.54857 16.8922 141 114 91
14.9164 -0.5258 55.3522 21 18 21
14.6547 -1.11952 54.3812 29 28 20
14.7844 -5.84362 54.8624 97 187 94
14.8604 -0.901324 54.8624 23 35 28
14.8604 -5.84362 54.8624 112 210 255
13.119 -2.54095 48.4332 51 71 37
1.96486 1.53182 7.21706 202 213 181
13.1861 -3.34645 48.4332 23 25 20
14.4258 1.1857 52.9868 135 110 76
13.1861 -3.7492 48.4332 65 132 60
11.8029 -8.34289 43.3528 21 26 24
15.0698 -7.58351 55.3522 138 202 230
12.2306 -7.649 44.9236 16 17 14
13.1861 -2.87657 48.4332 23 25 18
11.8029 -8.40298 43.3528 23 27 17
15.0125 0.163172 54.8624 255 210 192
14.6242 -5.09994 53.4436 21 23 15
15.283 -7.72924 55.8509 80 87 135
14.7514 -5.21901 53.9083 19 20 15
14.6242 -5.09994 53.4436 21 23 15
2.03895 1.51957 7.45126 140 191 177
4.44087 1.57773 16.2289 52 29 33
15.0885 0.315243 54.8624 248 156 122
13.1154 -7.3266 47.6881 22 23 19
13.9754 -4.84913 50.8152 21 23 22
13.4929 -4.52291 48.8146 23 27 20
12.0676 -7.85708 43.6581 130 76 70
14.6461 -9.46251 52.9868 104 161 147
2.33778 1.53725 8.45764 195 201 137
12.0676 -8.28063 43.6581 20 22 14
13.1815 -4.02198 47.6881 112 143 58
13.4546 -7.70957 48.4332 15 20 14
13.2476 -4.02198 47.6881 91 106 74
13.6681 0.00995581 49.202 54 43 37
13.3503 -3.45372 48.0578 62 70 44
13.6282 -6.07894 48.8146 15 20 21
13.6282 -0.937272 48.8146 71 109 92
14.1867 -0.200996 50.8152 13 21 22
13.7363 -1.0129 49.202 65 107 93
14.304 -0.344674 51.2351 58 68 44
2.78745 1.53039 9.93502 142 116 86
2.05357 1.53323 7.31931 255 236 241
13.4835 -2.12162 48.0578 14 18 13
13.4835 -2.12162 48.0578 14 18 13
4.51785 1.54312 16.1025 141 113 89
2.11602 1.5276 7.54191 255 233 211
2.79193 1.51906 9.95097 126 102 80
13.7635 0.754066 48.8146 51 32 32
13.8727 0.828242 49.202 36 29 29
13.5501 -5.31865 48.0578 15 16 13
13.8727 -6.12719 49.202 30 43 16
2.79227 1.51178 9.90328 116 92 75
13.8727 0.828242 49.202 36 29 29
2.85615 1.40597 10.1298 41 54 50
2.18223 1.53547 7.73964 209 137 155
14.1658 -0.0591739 49.9956 70 55 50
13.6167 -5.31865 48.0578 15 17 13
13.6167 -2.32144 48.0578 17 21 19
2.76623 1.53095 9.76292 144 118 100
14.1658 -0.0591739 49.9956 70 55 50
2.38662 1.57768 8.42317 165 79 52
2.40954 1.56926 8.50405 31 40 59
13.7231 -3.68207 48.4332 16 16 14
14.638 -9.15435 51.6621 27 33 27
14.398 -0.13057 50.8152 72 63 45
1.95825 1.54355 6.91132 111 198 160
14.3508 -0.129509 50.4021 57 34 28
15.7602 -7.96709 55.3522 19 18 21
13.8988 -5.40241 48.8146 15 18 14
13.7902 -2.80945 48.4332 47 106 46
4.42329 1.56726 15.46 12 21 37
13.8573 -3.34645 48.4332 17 22 18
13.2369 -8.90324 46.2646 19 22 13
14.4206 0.0101986 50.4021 17 19 24
2.20889 1.52094 7.72036 255 196 158
17.5618 -6.0275 61.3807 196 117 255
18.187 -6.21202 63.2597 170 177 255
13.9245 -3.4807 48.4332 20 21 17
13.9245 -8.91782 48.4332 30 46 56
3.72872 1.60239 12.9696 64 32 37
14.0341 -7.63497 48.8146 77 133 253
14.0341 -0.599004 48.8146 28 25 19
14.0341 -7.63497 48.8146 77 133 253
13.9916 -1.66832 48.4332 15 18 15
13.9916 -1.66832 48.4332 15 18 15
13.9916 -1.6012 48.4332 14 16 16
13.9916 -1.6012 48.4332 14 16 16
15.7098 -7.29973 54.3812 54 36 21
13.9916 -4.0177 48.4332 23 28 24
14.4429 -8.4433 49.9956 20 21 17
2.71764 1.55342 9.40736 31 23 32
15.648 -8.87994 53.9083 14 27 15
2.73482 1.55578 9.42166 53 25 17
15.3805 -7.11256 52.9868 54 45 27
15.648 -9.55236 53.9083 70 100 47
2.07079 1.53396 7.13401 151 116 112
17.0576 0.498174 58.4854 96 115 109
3.43094 1.63274 11.7637 17 30 41
14.1258 -1.73545 48.4332 18 16 17
14.7001 -3.83175 50.4021 14 19 13
12.7331 -8.58317 43.6581 29 45 28
21.6274 0.730934 73.803 174 151 124
22.4284 0.439783 76.5364 255 186 135
4.45269 1.54037 15.1947 142 114 87
13.9746 -2.1714 47.6881 146 114 97
14.1495 -2.18823 48.0578 141 124 91
21.9915 0.73974 74.6922 173 140 107
14.3724 -2.62861 48.8146 14 20 18
2.39854 1.57102 8.14645 60 43 24
2.42081 1.5742 8.22208 61 44 36
14.9614 -0.412275 50.8152 71 60 49
14.6711 -9.20059 49.5956 23 29 25
15.6742 -4.98292 52.9868 16 18 13
14.5546 -6.94547 49.202 14 41 71
5.99308 1.52033 20.2596 49 58 64
13.0672 -5.17068 43.9677 49 68 42
14.2827 -6.0513 48.0578 20 26 17
14.9795 -3.7619 50.4021 16 19 17
13.7498 -6.97965 46.2646 24 28 25
2.67802 1.58785 9.01083 214 160 118
15.1023 -8.08873 50.8152 114 121 211
4.35573 1.58731 14.6559 33 29 35
4.35573 1.58731 14.6559 33 29 35
21.7773 -1.50148 72.9347 88 66 50
14.8085 -7.82587 49.5956 86 96 55
1.96088 1.53952 6.56722 178 219 182
16.0962 -5.742 53.9083 89 71 10
13.9824 -9.35779 46.6124 79 96 102
22.4055 -1.43414 74.6922 95 62 40
16.3882 -9.10857 54.3812 20 27 39
3.64893 1.61345 12.1083 158 105 116
2.08977 1.52951 6.93451 177 150 196
2.76778 1.54205 9.18437 135 120 99
13.538 -5.03404 44.9236 18 16 13
14.327 -6.94273 47.3241 16 23 18
22.6126 -2.26228 74.6922 37 27 18
14.327 -7.00832 47.3241 15 22 16
2.78051 1.52933 9.18437 130 113 100
2.20287 1.5444 7.27635 255 199 128
15.9054 -5.0135 52.5377 14 14 12
2.79292 1.52337 9.22538 125 101 76
23.277 -1.46955 76.5364 81 60 43
14.6158 -8.64888 48.0578 16 21 21
15.032 -4.76338 49.202 15 17 16
13.7248 -8.45839 44.9236 29 39 32
2.03659 1.52574 6.66608 116 61 57
19.7294 0.908067 64.5776 195 191 200
13.6261 -7.71759 44.6004 80 111 99
2.60885 1.59941 8.53919 79 87 76
2.01064 1.51542 6.58116 36 34 54
13.6261 -7.71759 44.6004 80 111 99
4.40421 1.53435 14.3506 137 109 95
17.4552 -9.28992 56.8757 196 182 91
4.40421 1.53435 14.3506 137 109 95
6.17733 1.51046 20.1281 28 32 30
14.4138 -6.69486 46.9655 21 20 15
23.8901 -2.02492 77.4931 91 71 49
2.17678 1.52803 7.06088 40 42 45
7.9967 1.51514 25.9391 32 44 44
2.17678 1.52803 7.06088 40 42 45
14.8822 -2.18823 48.0578 60 46 30
13.6156 -8.64404 43.9677 17 20 15
3.33879 1.61598 10.7817 30 29 27
15.8065 -6.18723 50.8152 94 57 29
2.36323 1.53883 7.59737 35 29 18
23.2337 -0.191923 74.6922 68 51 37
2.36323 1.53883 7.59737 35 29 18
16.7686 -5.742 53.9083 154 54 44
23.2337 -0.295441 74.6922 31 40 36
14.609 -8.77777 46.9655 33 45 31
16.9157 -5.717 54.3812 62 112 66
3.66853 1.62965 11.7414 22 41 56
2.57921 1.58049 8.25493 66 42 51
4.34302 1.56324 13.9001 36 40 33
23.6218 -2.49943 75.6031 20 14 17
4.34302 1.56324 13.9001 36 40 33
2.72815 1.56285 8.73162 22 22 24
15.3729 -7.55919 49.202 54 153 225
18.7075 1.08606 59.6101 39 31 20
13.997 -5.98683 44.6004 55 135 62
15.082 -7.31679 48.0578 222 130 121
2.74025 1.56285 8.73162 21 13 14
14.693 -8.38876 46.6124 15 18 18
15.5093 -8.24109 49.202 18 20 13
21.0126 -0.540834 66.6608 66 51 36
18.9725 1.01319 60.1889 30 73 94
23.2639 -1.92849 73.803 109 62 52
17.0675 -5.44314 53.9083 35 59 35
21.105 -0.540834 66.6608 62 41 58
6.17221 1.517 19.4951 20 27 45
15.898 -3.38511 49.9956 14 19 14
3.60394 1.63587 11.3336 97 59 48
2.64967 1.57227 8.3326 236 167 119
16.9944 -5.39622 53.4436 33 33 30
2.20263 1.499 6.92676 160 227 223
21.7577 -0.647138 68.1258 34 27 38
23.2935 -2.41122 72.9347 17 12 14
2.07107 1.53817 6.48478 166 187 198
4.12489 1.61361 12.9155 115 97 77
9.99266 -5.99514 31.153 15 21 15
22.597 -2.23138 70.4483 15 13 13
17.2916 -7.60982 53.9083 80 80 76
22.0949 -2.7546 68.8828 31 30 20
14.7936 -6.9916 45.9219 21 22 14
20.8034 -2.85093 64.5776 24 29 24
15.016 -7.48434 46.6124 100 81 68
15.016 -7.48434 46.6124 100 81 68
21.2461 -2.82019 65.9516 22 27 24
2.76611 1.52497 8.5865 142 121 80
4.40868 1.53909 13.6853 153 108 79
10.7835 -4.47403 33.3304 27 43 65
14.748 -6.75066 45.5842 11 30 25
14.6403 -6.88953 45.2515 17 24 18
4.36027 1.49699 13.4771 136 100 74
2.15669 1.52574 6.66608 255 241 202
2.42237 1.54766 7.48726 157 189 147
2.22858 1.50977 6.88828 55 26 18
15.4947 -5.40992 47.6881 15 21 14
2.23564 1.50809 6.88063 23 29 32
15.4947 -5.47601 47.6881 16 20 17
15.6814 -5.45186 48.0578 19 23 16
22.2297 -1.30806 68.1258 123 96 110
9.76682 -3.79428 29.8051 113 113 57
9.76682 -3.75297 29.8051 96 157 92
21.8441 -0.910382 66.6608 255 173 142
2.76019 1.35588 8.42317 45 49 43
2.44464 1.56275 7.46023 106 63 87
21.7031 -1.35772 65.9516 119 103 95
15.9382 -5.3602 48.4332 15 19 14
21.7031 -0.809293 65.9516 254 174 135
4.31309 1.583 13.1067 30 23 21
14.4687 -8.52217 43.9677 42 74 49
2.45203 1.5712 7.45126 54 39 55
4.31309 1.583 13.1067 30 23 21
16.1314 -4.59056 48.8146 22 25 19
6.09727 1.48688 18.4508 37 28 30
10.6702 -5.00547 32.2888 17 19 25
15.8813 -8.9153 48.0578 99 110 255
21.3404 -2.76143 64.5776 18 18 14
10.6702 -5.00547 32.2888 17 19 25
15.8813 -8.9153 48.0578 99 110 255
17.8146 -4.92015 53.9083 14 20 15
21.8859 -1.99755 65.9516 79 73 46
21.6555 -2.7905 65.2574 18 20 15
10.0355 -4.31084 30.2412 21 44 29
2.60085 1.59833 7.83749 161 127 85
8.03623 1.51521 24.2166 87 54 46
9.93205 -4.20735 29.8051 68 76 54
2.74716 1.53269 8.24395 134 116 97
114.77 -22.8423 344.414 19 25 24
10.6488 -6.28252 31.9559 38 46 38
2.47254 1.57857 7.3891 252 203 162
2.16767 1.5186 6.47801 104 118 110
22.0687 -1.99755 65.9516 56 53 41
2.24024 1.48593 6.69487 72 63 49
69.1486 -12.2734 206.648 72 79 76
17.0038 -4.98998 50.8152 17 21 17
3.80119 1.63289 11.3129 136 96 108
9.38311 -3.40019 27.9255 20 27 22
9.38311 -3.40019 27.9255 20 27 22
18.1135 1.05689 53.9083 104 68 29
16.5321 -8.65023 49.202 18 19 17
10.1119 -4.79042 30.0944 38 93 46
21.9268 -1.88608 65.2574 54 62 46
3.68682 1.59896 10.9725 127 111 112
16.7331 -5.48884 49.5956 90 225 134
22.2515 -1.17491 65.9516 187 155 141
20.1119 -10.6453 59.6101 18 25 18
21.7879 -1.50843 64.5776 79 69 75
16.7331 -5.42011 49.5956 39 99 62
3.45433 1.61306 10.1965 41 22 14
21.6519 0.721551 63.9119 203 193 215
16.8019 -9.26932 49.5956 21 23 24
70.0078 -12.5598 206.648 60 83 73
16.6685 -4.627 49.202 56 54 28
16.7367 -4.96795 49.202 21 16 16
10.1386 -4.90958 29.8051 65 51 40
2.26512 1.5241 6.65892 162 151 147
4.07109 1.59476 11.9681 95 85 66
21.7405 -0.518532 63.9119 242 178 147
4.37516 1.53561 12.8619 146 110 77
4.37516 1.53561 12.8619 146 110 77
65.9008 -11.7748 193.733 53 76 93
2.49565 1.5572 7.33663 42 23 24
16.2217 -9.30937 47.6881 206 205 56
21.9669 -0.792433 64.5776 254 187 167
3.3033 1.63725 9.67153 54 39 29
2.20335 1.53016 6.45104 225 230 251
2.71116 1.56379 7.93784 26 29 42
2.7077 1.57278 7.92769 27 20 21
6.01539 1.49252 17.6121 16 20 29
6.01539 1.49252 17.6121 16 20 29
17.6452 -4.35715 51.6621 21 23 14
5.31503 1.46378 15.4986 162 163 228
9.93463 -4.37044 28.9694 72 154 117
10.2212 -4.95089 29.8051 28 78 34
10.0284 -4.37114 29.2427 75 124 70
8.89418 -3.21677 25.8311 63 109 83
9.97478 -4.65148 28.9694 48 43 26
17.9378 -4.61037 52.0962 25 23 16
8.89418 -3.21677 25.8311 63 109 83
16.3603 -8.7136 47.3241 164 217 206
3.70155 1.60482 10.7072 52 31 20
27.4769 -5.05099 79.4802 79 74 55
21.8693 -0.863934 63.2597 255 197 181
18.9663 -5.76759 54.8624 255 255 253
18.9663 -6.2238 54.8624 20 19 45
3.4019 1.61129 9.8404 57 65 59
21.957 -0.951608 63.2597 255 233 193
3.42096 1.61385 9.85604 130 57 58
19.3855 -5.94892 55.8509 235 231 255
