ply
format ascii 1.0
element vertex 1372
property float x
property float y
property float z
property uchar red
property uchar green
property uchar blue
end_header
48.3061 -14.262 9.27825 16 21 21
49.5108 -14.6668 5.40986 15 17 16
45.1685 -13.3946 9.04192 29 39 32
6.97599 -1.98723 -1.5004 116 61 57
65.0037 -19.2443 -0.0361818 195 191 200
44.8555 -13.2977 8.29648 80 111 99
8.85425 -2.54534 -1.54669 79 87 76
6.89073 -1.96194 -1.49133 36 34 54
44.8555 -13.2977 8.29648 80 111 99
14.6774 -4.29697 -1.39668 137 109 95
57.1348 -17.0355 10.048 196 182 91
14.6774 -4.29697 -1.39668 137 109 95
20.4671 -6.02659 -1.28834 28 32 30
47.2415 -14.0668 7.3084 21 20 15
77.9054 -23.3099 3.08516 91 71 49
7.37183 -2.12445 -1.49693 40 42 45
26.2911 -7.80217 -1.2081 32 44 44
7.37183 -2.12445 -1.49693 40 42 45
48.4038 -14.5238 2.81814 60 46 30
44.2092 -13.2927 9.21346 17 20 15
11.1021 -3.25837 -1.5305 30 29 27
51.1086 -15.4302 6.85696 94 57 29
7.90981 -2.30685 -1.49991 35 29 18
75.127 -22.6731 1.2113 68 51 37
7.90981 -2.30685 -1.49991 35 29 18
54.2151 -16.3687 6.45699 154 54 44
75.1255 -22.6732 1.3148 31 40 36
47.2121 -14.2636 9.39096 33 45 31
54.6894 -16.5122 6.4389 62 112 66
12.0644 -3.58087 -1.53016 22 41 56
8.56952 -2.51785 -1.53196 66 42 51
14.227 -4.23914 -1.43221 36 40 33
76.0065 -23.0561 3.5318 20 14 17
14.227 -4.23914 -1.43221 36 40 33
9.04701 -2.66321 -1.50735 22 22 24
49.472 -15.0098 8.20515 54 153 225
60.0318 -18.2596 -0.287084 39 31 20
44.884 -13.6673 6.56568 55 135 62
48.3294 -14.7273 7.94602 222 130 121
9.0471 -2.67531 -1.50736 21 13 14
46.8654 -14.35 8.99671 15 18 18
49.463 -15.1466 8.8869 18 20 13
67.0748 -20.5128 1.44262 66 51 36
60.6114 -18.5204 -0.205812 30 73 94
74.2124 -22.7114 2.93449 109 62 52
54.2218 -16.6673 6.15799 35 59 35
67.0755 -20.6052 1.44256 62 41 58
19.8343 -6.02622 -1.30425 20 27 45
50.3312 -15.5258 4.04296 14 19 14
11.6563 -3.51934 -1.54238 97 59 48
8.64759 -2.58773 -1.52263 236 167 119
53.7572 -16.5977 6.10423 33 33 30
7.23749 -2.15133 -1.46991 160 227 223
68.5437 -21.2469 1.57014 34 27 38
73.3374 -22.7478 3.40429 17 12 14
6.79516 -2.02307 -1.51554 166 187 198
13.2416 -4.02839 -1.49702 115 97 77
31.4082 -9.76432 6.37734 15 21 15
70.8487 -22.0699 3.18808 15 13 13
54.1914 -16.8931 8.32429 80 80 76
69.2719 -21.58 3.68837 31 30 20
46.1964 -14.4547 7.58941 21 22 14
64.9561 -20.321 3.72174 24 29 24
46.8812 -14.6723 8.09219 100 81 68
46.8812 -14.6723 8.09219 100 81 68
66.3337 -20.7533 3.71107 22 27 24
8.90163 -2.70229 -1.47165 142 121 80
14.0123 -4.30643 -1.41128 153 108 79
33.6137 -10.5376 4.88814 27 43 65
45.862 -14.4115 7.34353 11 30 25
45.5265 -14.3064 7.47752 17 24 18
13.8031 -4.25962 -1.37224 136 100 74
6.97689 -2.10733 -1.50048 255 241 202
7.80029 -2.36681 -1.5104 157 189 147
7.19937 -2.17756 -1.48126 55 26 18
47.9911 -15.1414 6.03363 15 21 14
7.19175 -2.18468 -1.4797 23 29 32
47.9901 -15.1414 6.09971 16 20 17
48.3615 -15.3254 6.08092 19 23 16
68.5375 -21.7195 2.2307 123 96 110
30.0913 -9.54703 4.15689 113 113 57
30.0919 -9.547 4.11559 96 157 92
67.0756 -21.3445 1.81161 255 173 142
8.73577 -2.69772 -1.30499 45 49 43
7.77366 -2.38928 -1.52591 106 63 87
66.3588 -21.2092 2.24848 119 103 95
48.7402 -15.5792 5.99468 15 19 14
66.3669 -21.2088 1.70012 254 174 135
13.4337 -4.21517 -1.46369 30 23 21
44.2174 -14.1457 9.09108 42 74 49
7.76487 -2.39673 -1.53449 54 39 55
13.4337 -4.21517 -1.46369 30 23 21
49.1343 -15.7689 5.23065 22 25 19
18.7891 -5.95916 -1.28955 37 28 30
32.5636 -10.4326 5.40417 17 19 25
48.3117 -15.5277 9.54386 99 110 255
64.9615 -20.8579 3.63192 18 18 14
32.5636 -10.4326 5.40417 17 19 25
48.3117 -15.5277 9.54386 99 110 255
54.2351 -17.4141 5.63459 14 20 15
66.3507 -21.3925 2.88813 79 73 46
65.6431 -21.1679 3.67086 18 20 15
30.5218 -9.81278 4.67969 21 44 29
8.15256 -2.54262 -1.55599 161 127 85
24.5691 -7.85466 -1.2337 87 54 46
30.0864 -9.71255 4.56982 68 76 54
8.5591 -2.68591 -1.48443 134 116 97
345.166 -112.194 27.7967 19 25 24
32.2117 -10.4146 6.67617 38 46 38
7.70297 -2.41769 -1.5428 252 203 162
6.78883 -2.11973 -1.49613 104 118 110
66.3521 -21.5753 2.88802 56 53 41
7.00573 -2.19069 -1.4603 72 63 49
207.232 -67.6028 15.2171 72 79 76
51.1353 -16.6266 5.65911 17 21 17
11.637 -3.71674 -1.53982 136 96 108
28.2149 -9.17718 3.73525 20 27 22
28.2149 -9.17718 3.73525 20 27 22
54.3259 -17.7086 -0.34198 104 68 29
49.4646 -16.1698 9.29537 18 19 17
30.3684 -9.89064 5.15699 38 93 46
65.6586 -21.4386 2.76637 54 62 46
11.2953 -3.60496 -1.51087 127 111 112
49.9065 -16.3655 6.14003 90 225 134
66.3657 -21.7575 2.06536 187 155 141
59.8687 -19.6726 11.4421 18 25 18
64.9834 -21.3045 2.37878 79 69 75
49.9075 -16.3654 6.0713 39 99 62
10.5179 -3.37831 -1.53632 41 22 14
64.3498 -21.1719 0.13927 203 193 215
49.851 -16.437 9.92005 21 23 24
207.234 -68.4622 15.5029 60 83 73
49.5252 -16.3032 5.27249 56 54 28
49.5207 -16.3716 5.61336 21 16 16
30.0776 -9.9196 5.27185 65 51 40
6.97053 -2.21581 -1.49901 162 151 147
12.2936 -3.98174 -1.49216 95 85 66
64.3321 -21.2613 1.37916 242 178 147
13.1888 -4.27911 -1.41998 146 110 77
13.1888 -4.27911 -1.41998 146 110 77
194.301 -64.4519 14.5293 53 76 93
7.65037 -2.44122 -1.52221 42 23 24
47.9388 -15.8712 9.9322 206 205 56
64.9954 -21.483 1.66275 254 187 167
9.99222 -3.23122 -1.56818 54 39 29
6.76231 -2.15561 -1.50812 225 230 251
8.25322 -2.65219 -1.52003 26 29 42
8.24318 -2.6488 -1.52917 27 20 21
17.95 -5.88359 -1.30756 16 20 29
17.95 -5.88359 -1.30756 16 20 29
51.9963 -17.2611 5.03849 21 23 14
15.8311 -5.19917 -1.30968 162 163 228
29.2485 -9.72154 4.72051 72 154 117
30.0776 -10.0022 5.3131 28 78 34
29.5224 -9.8132 4.7252 75 124 70
26.1198 -8.70389 3.52114 63 109 83
29.2446 -9.76189 5.0015 48 43 26
52.4288 -17.5507 5.29793 25 23 16
26.1198 -8.70389 3.52114 63 109 83
47.5847 -16.0121 9.33102 164 217 206
11.0302 -3.62168 -1.52066 52 31 20
79.8743 -26.8837 6.13812 79 74 55
63.6759 -21.3954 1.71479 255 197 181
55.1853 -18.5592 6.49535 255 255 253
55.1785 -18.5595 6.95152 20 19 45
10.1614 -3.32856 -1.53978 57 65 59
63.6752 -21.4831 1.8024 255 233 193
10.1772 -3.34751 -1.54212 130 57 58
56.1741 -18.971 6.69104 235 231 255
55.6761 -18.8016 6.55395 243 245 255
57.7198 -19.4983 7.35619 17 19 16
60.553 -20.4425 4.7141 75 92 71
69.2898 -23.3936 3.40088 24 14 20
44.8585 -15.1526 9.03701 230 235 255
12.7011 -4.20258 -1.47181 37 21 16
6.78263 -2.19824 -1.4947 35 39 49
76.0107 -25.6763 4.57788 22 13 15
12.7011 -4.20258 -1.47181 37 21 16
6.78263 -2.19824 -1.4947 35 39 49
74.2097 -25.1672 4.36482 18 11 14
29.9356 -10.1189 5.32834 93 119 62
18.0514 -6.06453 -1.26562 109 83 67
9.78527 -3.24089 -1.54937 16 25 31
59.9379 -20.413 7.14616 173 141 85
7.80224 -2.56394 -1.54165 127 96 81
58.8446 -20.0263 4.82167 147 125 71
7.14797 -2.34072 -1.51786 137 146 100
69.2884 -23.5846 3.59168 19 28 17
61.1421 -20.8958 5.01354 161 110 42
61.7926 -21.1003 1.83162 249 186 144
62.4333 -21.31 0.132447 200 147 105
49.8618 -17.0553 9.5073 25 23 21
61.7435 -21.1027 5.14896 137 129 45
49.4693 -16.9199 9.36309 18 19 21
73.2741 -25.0766 8.8607 143 115 127
62.4263 -21.3963 0.647857 239 169 137
62.4263 -21.3963 0.647857 239 169 137
22.8134 -7.7525 -1.24321 26 30 41
61.2026 -20.9771 0.970641 205 164 143
63.6688 -21.8342 2.41583 18 24 28
28.5933 -9.81328 4.33629 38 107 61
28.725 -9.8582 4.23829 93 95 68
44.8618 -15.4616 8.97501 255 255 255
84.1222 -29.0364 10.5367 95 200 129
84.1222 -29.0364 10.5367 95 200 129
52.8747 -18.2091 5.34313 38 70 36
26.123 -8.99023 3.44938 30 30 19
17.1838 -5.86131 -1.30068 28 32 19
17.1838 -5.86131 -1.30068 28 32 19
6.99322 -2.3248 -1.5222 153 165 114
28.7253 -9.89761 4.23827 57 59 61
6.99322 -2.3248 -1.5222 153 165 114
84.1935 -29.149 5.77674 41 34 40
26.0155 -8.98861 3.47039 29 25 11
47.5867 -16.5368 9.46186 255 222 250
61.8116 -21.4398 0.72563 185 76 53
65.6547 -22.8863 3.76023 57 69 45
26.1193 -9.06203 3.7357 99 72 43
26.1235 -9.06182 3.44933 17 25 16
63.0657 -21.9591 0.0474689 8 29 29
9.46409 -3.207 -1.56267 23 35 35
62.4085 -21.741 2.02221 14 13 16
26.1235 -9.06182 3.44933 17 25 16
63.0664 -22.0459 0.0474154 26 30 33
7.21724 -2.43114 -1.52282 29 25 24
63.0355 -22.0474 2.1301 11 13 17
7.21724 -2.43114 -1.52282 29 25 24
12.2941 -4.21401 -1.40938 136 106 77
64.3519 -22.5009 0.669857 115 126 110
12.0663 -4.15052 -1.3678 133 95 72
26.0179 -9.09548 3.36338 19 28 21
25.912 -9.05788 3.31368 18 28 21
60.6006 -21.3581 1.96106 12 13 16
9.7572 -3.34873 -1.54495 31 30 31
6.91525 -2.34332 -1.53269 56 24 25
57.309 -20.1811 -0.121298 27 28 27
57.309 -20.1811 -0.121298 27 28 27
43.9212 -15.5586 8.90461 40 45 38
43.9212 -15.5586 8.90461 40 45 38
57.2594 -20.2624 3.26779 96 131 49
12.0674 -4.1993 -1.41664 155 111 86
27.5976 -9.7703 4.18074 28 20 14
26.11 -9.24155 4.45151 133 147 131
55.2439 -19.6212 3.07348 177 110 38
27.5976 -9.7703 4.18074 28 20 14
45.3287 -16.0648 -0.422345 26 23 21
56.2453 -20.0515 2.43354 15 15 16
54.2885 -19.3547 3.01872 141 109 32
10.5369 -3.66696 -1.5389 21 25 36
56.2464 -20.0515 2.35614 15 16 14
7.69605 -2.65006 -1.55142 94 93 64
40.5291 -14.4576 7.64719 20 23 16
40.5291 -14.4576 7.64719 20 23 16
56.2539 -20.1286 1.89171 11 14 12
56.2527 -20.1286 1.96911 12 15 11
7.172 -2.47202 -1.54174 207 143 85
56.2814 -20.1272 0.0341883 25 23 30
26.123 -9.34835 3.62814 19 22 14
7.20259 -2.49255 -1.53873 188 170 153
8.04445 -2.79713 -1.38585 25 22 22
16.4819 -5.84087 -1.31676 55 38 30
11.7432 -4.14659 -1.45865 47 28 26
7.49859 -2.60934 -1.52197 107 87 70
54.783 -19.7496 1.76458 11 14 14
54.7818 -19.7496 1.83994 12 16 14
11.7432 -4.14659 -1.45865 47 28 26
54.8081 -19.8237 0.106607 33 31 25
10.0551 -3.54825 -1.55079 74 81 74
15.3456 -5.4724 -1.33341 73 59 47
25.2048 -9.11329 2.45925 96 110 40
25.2048 -9.11329 2.45925 96 110 40
55.2901 -20.0752 0.18417 21 33 42
26.126 -9.45564 3.48488 149 107 97
15.3461 -5.49319 -1.35422 29 35 33
10.9589 -3.89158 -1.52564 64 100 84
7.35168 -2.57555 -1.53137 52 33 36
11.5161 -4.11081 -1.44666 30 27 31
7.3598 -2.58824 -1.53303 25 23 37
9.6301 -3.4196 -1.53802 98 94 94
26.1268 -9.49141 3.44907 81 145 98
26.1273 -9.49139 3.41327 113 139 82
9.33162 -3.31028 -1.5411 62 58 69
25.514 -9.29402 2.17578 65 88 93
29.6107 -10.7819 -0.746117 124 126 80
56.7536 -20.7808 2.76839 53 53 27
13.7791 -4.9586 -1.36985 99 45 51
26.4449 -9.68451 4.14608 46 71 48
26.1257 -9.56309 3.55641 122 82 62
7.44907 -2.64078 -1.51199 36 18 17
26.2408 -9.60275 3.1043 22 21 15
26.2195 -9.6038 4.54213 128 162 100
10.5377 -3.7802 -1.53897 11 23 32
27.1421 -9.97236 3.10271 18 19 15
26.4608 -9.72 3.09483 15 16 12
27.9437 -10.2858 5.77158 79 102 51
7.45741 -2.65371 -1.51366 46 23 10
27.1426 -9.97233 3.06552 20 19 15
26.3374 -9.67982 3.98395 71 123 55
26.179 -9.59628 -0.0232181 32 19 23
28.2881 -10.3738 -0.599716 101 108 70
42.0085 -15.4555 -0.512173 189 162 104
25.4119 -9.326 2.20141 42 89 83
27.8286 -10.2397 5.21105 143 107 93
53.3831 -19.6841 2.08435 16 20 12
31.3535 -11.5584 0.459077 24 27 30
27.9514 -10.3238 5.27297 125 74 121
26.1793 -9.63208 -0.0232402 17 20 22
26.1533 -9.63336 1.73077 95 144 200
26.2882 -9.67235 -0.0589808 19 21 22
26.1279 -9.63461 3.44898 29 40 31
26.1546 -9.6691 1.65915 98 125 69
39.1424 -14.5004 -0.64308 97 123 89
26.1247 -9.70639 3.69951 13 34 25
26.1549 -9.7049 1.65913 74 71 52
27.2935 -10.1261 0.837952 13 14 14
26.1554 -9.70488 1.62333 74 66 37
26.1247 -9.70639 3.69951 13 34 25
26.4299 -9.83031 5.23347 33 55 16
8.97951 -3.25282 -1.59169 62 84 66
11.3958 -4.15886 -1.40131 136 104 79
25.4059 -9.43068 2.65351 45 42 27
6.99503 -2.50995 -1.55009 43 40 47
25.4062 -9.46546 2.65349 27 32 25
11.3566 -4.15934 -1.41187 138 111 85
25.7194 -9.58161 2.40533 55 55 34
26.9458 -10.0326 0.826209 9 13 14
11.3174 -4.15984 -1.40713 134 108 87
13.2462 -4.88766 -1.37226 124 117 82
26.156 -9.77647 1.62329 58 70 49
20.4137 -7.59198 -1.28539 49 39 29
27.2232 -10.2043 5.61902 34 31 15
25.7233 -9.61665 2.15884 27 28 17
27.2232 -10.2043 5.61902 34 31 15
24.5913 -9.23728 4.38722 56 72 47
26.1568 -9.81225 1.58747 64 66 53
28.5422 -10.7025 -0.448455 166 134 102
26.2656 -9.85327 1.55847 73 91 79
15.4579 -5.74292 -1.36373 40 47 46
15.5697 -5.80637 -1.35215 62 46 39
28.5413 -10.7416 -0.370378 110 106 95
25.6967 -9.68841 3.98968 30 35 20
28.5413 -10.7416 -0.370378 110 106 95
15.3117 -5.70819 -1.37202 41 57 57
25.8144 -9.72762 3.12254 81 96 59
25.6142 -9.64782 2.53541 123 147 141
10.4881 -3.8743 -1.53183 24 27 32
26.175 -9.84716 0.370384 86 114 59
26.0201 -9.80865 3.57683 111 138 117
26.2813 -9.88846 0.51602 62 57 33
24.1285 -9.12555 4.00403 80 86 95
26.1774 -9.88286 0.227178 47 71 86
25.697 -9.72362 3.98966 43 47 24
25.1087 -9.48922 2.41451 90 124 137
24.2216 -9.16073 3.95343 108 122 82
26.178 -9.88283 0.191382 62 103 93
25.4996 -9.64412 3.32802 60 52 80
25.8267 -9.76239 2.30937 116 126 94
26.1785 -9.8828 0.155586 69 128 83
23.5017 -8.88643 3.99369 151 184 194
8.93124 -3.29444 -1.55942 26 28 19
8.95518 -3.30362 -1.5516 15 14 23
23.5019 -8.91861 3.99367 160 200 196
25.5081 -9.67864 2.76923 106 108 77
26.0512 -9.87844 1.50922 83 73 47
26.0512 -9.87844 1.50922 83 73 47
24.9 -9.48271 3.21293 174 157 104
26.2081 -9.99994 5.51242 200 205 252
25.098 -9.55851 3.17048 64 101 64
26.6273 -10.1226 -0.459444 99 109 92
26.0209 -9.9156 3.57676 90 87 58
26.178 -9.95445 0.227134 110 113 105
25.7278 -9.79255 1.94748 17 27 25
11.0892 -4.14773 -1.46886 34 25 28
11.0892 -4.14773 -1.46886 34 25 28
25.8908 -9.87579 5.15919 52 59 46
26.3013 -9.99536 -0.778097 32 19 15
25.0318 -9.55307 0.966991 13 12 16
25.0151 -9.55389 2.09649 41 57 45
25.0932 -9.59312 3.5141 91 107 70
25.2051 -9.63104 2.70045 125 107 63
25.0932 -9.59312 3.5141 91 107 70
24.0337 -9.22249 4.28458 105 125 96
26.0642 -9.98479 0.689265 82 65 66
25.9797 -9.94246 -0.804891 14 14 17
10.1809 -3.82558 -1.54242 152 109 83
24.1271 -9.25786 4.16916 99 86 108
26.1849 -10.0257 -0.202463 84 108 103
25.3 -9.73946 3.12728 112 107 51
15.4952 -5.90405 -1.30396 119 97 71
10.181 -3.83924 -1.54243 147 121 126
7.07581 -2.63375 -1.5304 43 27 28
26.1555 -10.063 1.80209 42 83 75
26.191 -10.0613 -0.596242 90 85 52
26.0861 -10.0194 -0.772306 20 16 10
7.07581 -2.63375 -1.5304 43 27 28
24.503 -9.43589 4.03406 36 46 33
25.0047 -9.65713 2.84943 49 20 13
25.0047 -9.65713 2.84943 49 20 13
25.9471 -10.0151 1.43158 63 79 44
26.0863 -10.055 -0.772328 20 16 15
25.4119 -9.81316 2.44458 32 45 20
25.8325 -9.97432 2.02641 23 32 25
24.9862 -9.69228 4.11582 50 71 41
25.9447 -10.0507 1.60906 26 25 19
19.6034 -7.55233 -1.28993 53 31 30
19.6034 -7.55233 -1.28993 53 31 30
25.8422 -10.0092 1.39001 60 64 89
25.8328 -10.0097 2.02639 22 22 19
24.3901 -9.4257 -1.02591 144 135 93
24.0301 -9.32146 4.58076 15 21 13
24.9895 -9.72636 3.91043 61 59 38
9.29444 -3.53214 -1.55973 119 95 67
25.9802 -10.0845 -0.769479 23 23 26
23.5833 -9.17861 4.52557 22 24 17
8.67599 -3.301 -1.56171 71 64 67
10.978 -4.20835 -1.425 130 104 81
26.0866 -10.162 -0.736746 35 33 27
24.7939 -9.68347 3.91289 176 131 56
25.9531 -10.1213 1.07651 43 54 40
24.5108 -9.60338 3.59769 74 62 39
23.3266 -9.14 4.28263 114 172 41
9.77462 -3.74675 -1.54744 51 31 27
24.5112 -9.60336 3.56414 39 45 42
7.06848 -2.6777 -1.51012 119 103 92
7.06848 -2.6777 -1.51012 119 103 92
26.079 -10.198 -0.202055 19 22 26
15.1336 -5.86567 -1.33614 46 48 57
25.9571 -10.1567 0.827988 126 92 52
26.0713 -10.2341 0.332636 19 16 17
25.951 -10.1925 1.25397 16 14 18
24.8917 -9.79008 3.92866 49 95 65
24.8922 -9.79006 3.89457 135 107 66
24.517 -9.63665 3.19497 23 19 15
24.63 -9.67355 1.99493 37 67 25
25.632 -10.0679 1.55332 51 60 59
10.3086 -3.97172 -1.51991 29 35 33
25.8456 -10.1859 1.24849 13 12 14
25.121 -9.90117 1.7957 16 14 13
24.2374 -9.55818 3.09076 33 33 19
8.51008 -3.26966 -1.55491 162 131 94
26.0774 -10.2695 -0.059509 16 15 16
26.0779 -10.2694 -0.0951565 16 15 15
10.3736 -4.01139 -1.51538 43 25 24
23.886 -9.41219 2.16068 15 23 20
25.2213 -9.94091 1.7687 12 11 13
23.59 -9.30752 4.13793 26 37 19
26.0774 -10.2695 -0.059509 16 15 16
23.5823 -9.3079 4.65468 124 116 89
10.7803 -4.18826 -1.42892 137 109 85
10.7803 -4.18826 -1.42892 137 109 85
24.9245 -9.85668 1.74676 14 12 11
24.2381 -9.59133 3.05757 28 24 12
10.423 -4.04497 -1.52244 49 28 27
8.95635 -3.45918 -1.5517 28 19 24
24.1411 -9.55469 3.37596 119 234 135
23.6706 -9.37544 4.6725 136 155 127
23.5902 -9.33982 4.13791 43 29 19
24.6813 -9.7815 5.0471 116 184 166
9.04167 -3.49323 -1.55418 71 38 30
6.95282 -2.65943 -1.5223 20 22 31
24.2381 -9.59133 3.05757 28 24 12
24.6145 -9.74172 3.07298 30 26 16
25.1027 -9.97083 3.06713 19 19 17
6.93861 -2.66293 -1.51921 28 23 40
12.7059 -4.97434 -1.40369 152 148 86
24.8748 -9.89323 5.1218 255 210 94
10.6928 -4.16761 -1.43195 158 111 86
26.0763 -10.3408 0.0473897 14 15 15
26.0763 -10.3408 0.0473897 14 15 15
24.6223 -9.77505 2.5676 14 14 16
24.6223 -9.77505 2.5676 14 14 16
10.6928 -4.16761 -1.43195 158 111 86
26.3029 -10.4268 -0.670526 106 129 78
26.6341 -10.5958 -0.678153 108 131 76
24.5378 -9.76992 1.85253 12 18 9
24.2342 -9.65789 3.35606 72 112 64
23.3267 -9.33171 4.37833 50 100 65
24.4308 -9.76598 2.71416 26 58 92
24.2207 -9.69174 4.2848 28 39 46
23.3276 -9.33166 4.31445 84 153 99
22.6151 -9.02796 1.88561 34 41 15
24.7442 -9.87992 0.852976 16 15 16
24.7332 -9.88046 1.59708 17 21 19
24.2435 -9.7238 2.75896 17 32 29
25.1924 -10.1149 3.80422 73 73 63
21.989 -8.80559 1.92094 108 128 46
6.94391 -2.69344 -1.38295 70 102 102
24.9346 -9.99261 1.13303 150 110 66
25.5589 -10.2352 -0.374183 105 116 80
24.7449 -9.91372 0.819132 15 13 16
9.63273 -3.79372 -1.52535 27 28 36
18.8008 -7.51898 -1.29051 43 28 30
38.909 -15.6911 -0.533603 104 135 111
24.2453 -9.7569 2.65943 46 44 39
24.7412 -9.94774 1.0897 33 58 21
47.7415 -19.2849 0.410041 26 32 37
47.7429 -19.3504 0.34442 43 29 28
38.6717 -15.6473 -0.583819 146 131 71
10.2456 -4.05627 -1.53821 106 69 52
38.6717 -15.6473 -0.583819 146 131 71
24.5476 -9.93731 1.28193 103 125 59
9.48178 -3.75745 -1.56521 165 114 93
24.5466 -9.93736 1.34905 61 67 58
24.5466 -9.93736 1.34905 61 67 58
9.48178 -3.75745 -1.56521 165 114 93
8.43529 -3.32969 -1.54138 126 89 77
24.5386 -9.93775 1.88599 57 67 55
23.0164 -9.31959 2.5193 21 21 18
21.8362 -8.83408 2.08602 131 191 178
21.9109 -8.86488 2.12348 131 171 70
48.851 -19.8712 0.689734 29 26 27
10.5229 -4.18384 -1.46616 58 40 24
10.5229 -4.18384 -1.46616 58 40 24
24.2293 -9.85724 3.78715 29 26 19
48.4759 -19.7838 0.617188 29 26 27
23.4296 -9.52605 3.33698 25 29 33
37.3022 -15.2419 -0.616782 149 111 86
22.6884 -9.24708 2.48184 26 25 19
22.6884 -9.24708 2.48184 26 25 19
34.6434 -14.1473 -0.625139 139 144 129
22.4206 -9.14938 4.3261 51 53 26
8.2282 -3.26667 -1.56967 21 15 12
45.3203 -18.6188 1.4437 14 13 13
22.8188 -9.34717 4.71845 139 142 65
22.3777 -9.14565 1.89515 32 34 26
24.0718 -9.87923 2.04589 23 27 26
24.6358 -10.1114 1.8262 27 30 18
25.1332 -10.3131 1.17689 18 18 17
6.79785 -2.69723 -1.3542 18 21 28
20.3605 -8.34561 2.68995 23 38 36
20.3601 -8.34563 2.71775 23 36 28
14.1751 -5.75453 -1.35038 24 27 22
23.0764 -9.513 4.20272 157 212 181
14.3319 -5.83886 -1.34542 36 35 29
22.1326 -9.11016 2.69108 86 85 89
21.8254 -8.98383 2.89134 28 50 35
24.5384 -10.1056 1.98656 23 17 16
22.2089 -9.14239 2.76156 113 120 55
10.2617 -4.15918 -1.49931 47 22 23
10.4069 -4.22007 -1.45035 130 107 90
22.6765 -9.37178 3.35017 50 32 16
21.8301 -9.01344 2.59302 74 67 45
21.7645 -9.01156 1.98925 61 36 21
23.0769 -9.57618 4.20269 127 114 69
24.5434 -10.1725 1.68449 29 26 17
22.6731 -9.40297 3.59827 51 63 65
24.8387 -10.2928 1.19597 22 20 13
9.5779 -3.88649 -1.52957 44 32 35
22.2822 -9.23598 3.10668 51 74 38
22.2824 -9.26645 3.10667 140 170 32
8.98179 -3.64884 -1.54394 32 28 32
23.5085 -9.78744 3.99314 24 21 15
24.356 -10.127 1.63755 17 20 15
18.2679 -7.55 -1.30511 88 47 42
24.1338 -10.084 4.13561 15 22 19
24.6475 -10.2794 1.1186 14 18 14
8.38314 -3.4086 -1.54307 119 79 55
20.697 -8.6239 2.39617 67 62 41
13.1436 -5.41532 -1.37962 35 48 38
7.91756 -3.21231 -1.56363 26 20 20
21.8775 -9.13605 4.51803 41 36 20
21.8775 -9.13605 4.51803 41 36 20
20.697 -8.6239 2.39617 67 62 41
10.0285 -4.10188 -1.53306 77 69 41
46.6921 -19.6222 -0.11413 18 18 23
21.47 -8.97662 2.07833 63 67 43
23.5418 -9.85018 1.77294 40 30 25
46.6912 -19.6222 -0.0500181 19 19 23
24.4442 -10.2335 2.0453 20 103 85
24.4437 -10.2335 2.07873 88 77 65
24.843 -10.3945 0.95821 13 16 12
12.185 -5.04445 -1.34786 177 131 96
8.73459 -3.57987 -1.54866 193 177 141
46.6916 -19.6863 -0.0500577 19 17 21
20.6283 -8.65208 2.52888 34 28 21
22.2047 -9.35519 3.15607 51 40 26
9.33586 -3.84725 -1.55392 100 55 42
8.21873 -3.37197 -1.55689 45 33 26
8.73494 -3.60318 -1.56033 184 97 105
22.1259 -9.3526 3.26569 93 203 132
9.93749 -4.13038 -1.46624 53 55 67
25.7456 -10.9189 1.31302 41 65 28
21.8266 -9.25237 2.95084 151 142 88
20.5005 -8.67948 2.23204 53 45 25
20.5003 -8.70748 2.26001 37 30 20
22.9522 -9.75518 1.47486 235 218 78
22.9522 -9.75518 1.47486 235 218 78
25.0375 -10.6486 1.13745 18 14 17
22.8663 -9.75114 1.71914 141 192 136
22.4274 -9.57879 4.08037 30 28 17
21.8262 -9.31207 3.01046 153 187 126
22.8663 -9.75114 1.71914 141 192 136
23.9835 -10.2351 2.07035 22 20 15
22.4274 -9.57879 4.08037 30 28 17
23.1113 -9.85888 2.02316 20 23 14
39.1562 -16.7559 -0.429694 125 126 141
37.9791 -16.3002 -0.470963 178 159 129
22.0425 -9.44075 3.76635 133 74 65
23.9847 -10.2678 2.00475 35 38 22
22.1232 -9.47378 3.50761 172 224 153
22.1232 -9.47378 3.50761 172 224 153
44.6978 -19.2113 0.43968 41 41 44
21.8264 -9.34191 3.01044 143 164 87
21.5992 -9.2754 3.33291 113 140 104
9.77544 -4.11356 -1.4167 139 106 79
21.8151 -9.3723 3.786 100 133 65
9.7482 -4.11405 -1.51707 36 23 19
9.80479 -4.13926 -1.43396 148 109 92
20.8373 -8.96535 2.21321 117 147 51
20.5656 -8.84833 2.37986 67 61 19
44.0694 -19.0619 0.674396 23 22 23
22.1874 -9.56864 4.43094 43 46 23
20.566 -8.84831 2.35179 14 33 22
22.1874 -9.56864 4.43094 43 46 23
23.5504 -10.1717 1.35445 22 19 11
20.8405 -8.99366 2.01407 69 95 106
43.4686 -18.8565 0.186708 40 42 42
17.3814 -7.48354 -1.31514 47 38 33
6.58878 -2.75771 -1.39103 29 24 26
17.3347 -7.48659 -1.31175 40 30 26
21.0469 -9.14137 2.0637 114 111 8
24.4606 -10.634 1.14249 94 92 105
24.4606 -10.634 1.14249 94 92 105
22.7886 -9.90246 1.52577 16 20 14
21.6569 -9.42671 4.47031 68 99 41
22.6262 -9.83126 1.54518 16 26 18
13.2786 -5.70506 -1.32167 49 25 30
43.4598 -18.9763 0.842896 14 16 14
20.4345 -8.87457 2.36389 34 42 15
22.151 -9.654 1.72274 171 145 94
22.151 -9.654 1.72274 171 145 94
36.031 -15.7535 -0.450524 198 169 147
21.2452 -9.26363 2.92702 21 28 24
21.8436 -9.52012 1.93645 174 194 145
21.104 -9.2015 2.93572 38 56 30
9.77729 -4.17898 -1.50842 20 22 30
20.4347 -8.90246 2.36387 29 32 16
8.89899 -3.79178 -1.54169 17 23 40
21.2278 -9.29353 4.11698 153 142 77
22.4674 -9.82239 1.50291 19 25 13
9.76273 -4.18571 -1.49316 28 28 32
22.4674 -9.82239 1.50291 19 25 13
7.74538 -3.29357 -1.57095 97 86 72
21.8438 -9.54995 1.93643 185 222 184
9.36285 -4.00878 -1.52076 116 113 89
21.2984 -9.32504 4.1603 122 154 162
21.0895 -9.25989 3.9447 40 57 54
43.7783 -19.2885 -0.17213 23 27 27
8.91111 -3.82083 -1.54374 9 24 23
22.1546 -9.71435 1.51095 38 23 18
43.4766 -19.2143 -0.171473 30 32 31
23.1235 -10.1743 1.35969 44 58 33
9.3368 -4.0221 -1.52905 123 91 89
43.4687 -19.2147 0.365468 27 24 28
21.6097 -9.51117 2.74232 199 184 196
22.0785 -9.7104 1.47523 26 26 17
20.6918 -9.10479 2.98934 52 97 70
21.6097 -9.51117 2.74232 199 184 196
21.6589 -9.5748 4.41097 40 62 64
21.9976 -9.70673 1.80023 27 36 20
21.9978 -9.73678 1.80021 22 32 20
19.9265 -8.81302 2.22055 138 141 112
43.1743 -19.2005 0.18463 30 32 36
20.9017 -9.25232 2.62023 138 141 55
43.1629 -19.2011 0.954862 17 19 16
19.9261 -8.81304 2.24774 208 233 107
41.7303 -18.6186 1.14968 20 21 15
8.62321 -3.73899 -1.55202 97 86 59
21.0237 -9.34372 3.73006 30 25 13
21.0237 -9.34372 3.73006 30 25 13
21.1198 -9.37377 1.95542 26 19 14
21.1198 -9.37377 1.95542 26 19 14
39.6239 -17.6763 1.57718 23 26 22
7.36458 -3.18379 -1.55293 23 16 15
23.4684 -10.4542 1.18864 19 18 17
21.2583 -9.46625 2.14325 86 83 31
20.3474 -9.06945 3.94063 40 67 37
20.3474 -9.06945 3.94063 40 67 37
20.2394 -9.03774 2.50598 201 119 73
41.1823 -18.4868 1.35962 14 20 16
19.8659 -8.8665 2.15907 85 61 35
20.239 -9.03776 2.5336 158 64 56
20.6297 -9.21561 2.7257 29 26 17
41.7371 -18.7328 0.748697 30 20 17
20.6299 -9.24378 2.72569 21 23 17
9.52395 -4.18217 -1.44464 137 107 80
19.8665 -8.89358 2.13195 22 28 30
20.6939 -9.27433 2.93271 21 25 34
9.49677 -4.1698 -1.45329 149 113 81
11.4418 -5.06684 -1.36043 107 90 63
21.4812 -9.65076 1.66742 75 104 40
40.3905 -18.24 1.38726 14 20 11
42.3129 -19.1013 -0.227091 50 43 30
8.20043 -3.59265 -1.56417 27 20 12
21.0541 -9.48595 1.74742 93 115 97
21.1243 -9.51776 1.7247 149 176 134
9.33719 -4.12202 -1.50414 74 41 32
9.33719 -4.12202 -1.50414 74 41 32
42.5933 -19.29 0.180918 20 23 28
21.5549 -9.71318 1.61452 51 69 34
22.7937 -10.2759 1.36991 113 106 62
22.9588 -10.3822 1.34906 58 78 71
42.5937 -19.3485 0.180882 29 29 34
41.7396 -18.9619 0.691282 18 17 19
41.7396 -18.9619 0.691282 18 17 19
10.8388 -4.82114 -1.46532 23 32 45
7.34128 -3.22161 -1.57711 62 66 71
8.8526 -3.91274 -1.53369 26 23 22
16.4937 -7.40707 -1.31772 35 31 28
21.2594 -9.61138 2.14316 30 27 22
8.8526 -3.91274 -1.53369 26 23 22
41.7396 -18.9619 0.691282 18 17 19
16.4937 -7.40707 -1.31772 35 31 28
20.6274 -9.35663 2.95096 24 35 20
21.5953 -9.80724 3.86399 97 107 57
19.9261 -9.03063 2.35635 21 34 24
20.3746 -9.235 2.18895 46 125 87
21.5953 -9.80724 3.86399 97 107 57
19.9263 -9.05782 2.35634 20 29 35
20.6983 -9.41547 2.70654 82 98 160
20.3617 -9.26346 3.07862 28 31 16
21.845 -9.93786 2.05551 65 92 34
19.4202 -8.83524 3.7017 103 155 132
36.6636 -16.7332 -0.457594 188 167 160
22.0043 -10.0069 1.49966 30 32 17
8.56864 -3.81696 -1.55367 122 117 108
19.4204 -8.86176 3.70168 159 121 87
38.4188 -17.6086 1.6317 61 77 39
24.5577 -11.2126 1.24758 20 21 17
8.07248 -3.58798 -1.57218 131 131 111
20.699 -9.44372 2.67827 111 132 111
6.1619 -2.70827 -1.37448 53 35 34
8.02428 -3.57637 -1.57354 168 126 112
19.9899 -9.14108 2.30947 21 21 16
41.7354 -19.1913 1.09206 92 68 40
9.23419 -4.13635 -1.53709 87 74 63
40.9316 -18.8146 0.451569 95 82 63
21.41 -9.7933 1.69062 34 41 23
38.8931 -17.8807 1.65283 65 67 37
12.8113 -5.79231 -1.38031 29 28 39
7.3895 -3.28284 -1.55804 28 14 24
12.8365 -5.82132 -1.36564 48 35 23
19.8021 -9.08198 2.42206 65 69 41
7.65833 -3.41729 -1.56348 138 85 57
40.9387 -18.8704 0.00232852 238 151 114
20.5634 -9.43828 2.82871 20 26 18
41.471 -19.1776 0.458437 63 53 57
40.6725 -18.8038 0.169168 221 173 126
21.627 -9.95336 1.79732 41 57 67
40.9362 -18.9829 0.226862 190 205 165
9.13155 -4.12604 -1.44725 143 110 88
20.2975 -9.37218 3.09608 159 123 30
20.2975 -9.37218 3.09608 159 123 30
11.5232 -5.243 -1.35431 185 150 81
9.13155 -4.12604 -1.44725 143 110 88
9.13155 -4.12604 -1.44725 143 110 88
8.5689 -3.87409 -1.54228 42 32 42
9.13183 -4.13823 -1.45946 125 113 92
20.4843 -9.49218 3.74267 15 30 21
40.6701 -18.9156 0.392243 105 83 88
20.4838 -9.4922 3.77066 24 30 18
18.9024 -8.75139 3.7028 19 23 11
20.8223 -9.64913 3.57826 103 119 60
18.9024 -8.75139 3.7028 19 23 11
22.1506 -10.2593 2.05512 63 74 48
10.5275 -4.79148 -1.46654 204 165 142
8.88913 -4.03574 -1.55168 137 91 63
7.09541 -3.19348 -1.57148 36 34 26
20.959 -9.74211 3.63121 71 97 48
22.8794 -10.6256 1.28124 18 24 17
22.0806 -10.2833 1.6256 77 94 36
7.37404 -3.33401 -1.57425 143 112 91
22.396 -10.4294 1.31346 15 21 17
7.35806 -3.32644 -1.58059 135 98 85
24.0033 -11.1854 1.21722 71 67 31
20.3749 -9.48533 2.30001 37 44 27
38.9074 -18.2003 0.852226 35 23 25
21.8589 -10.2058 1.24994 22 33 30
22.0095 -10.2771 1.28922 21 30 16
37.9758 -17.811 0.517379 201 160 146
20.6919 -9.67025 3.27159 17 21 14
19.8645 -9.27326 2.45693 13 18 12
19.3042 -9.01827 3.70475 14 15 10
21.8563 -10.2059 1.42892 23 27 24
8.52568 -3.89905 -1.55726 118 112 83
8.96078 -4.11735 -1.51621 17 15 19
20.7086 -9.72597 2.16941 16 17 13
20.9964 -9.85487 1.16837 30 36 20
36.4558 -17.2354 -0.405775 193 142 123
18.7912 -8.85309 3.7571 113 117 83
37.5376 -17.7514 -0.312873 195 163 145
20.6635 -9.72119 0.69734 87 99 48
21.8517 -10.2957 1.78682 36 47 41
9.00936 -4.15245 -1.51227 40 26 24
9.00936 -4.15245 -1.51227 40 26 24
9.00936 -4.15245 -1.51227 40 26 24
20.498 -9.65948 2.90305 10 14 10
9.02144 -4.15828 -1.50224 52 39 47
41.7567 -19.7633 -0.0537708 146 144 147
20.2376 -9.56292 2.89239 16 15 10
21.8541 -10.3254 1.63765 22 18 12
20.1708 -9.53241 3.07564 110 74 33
15.7328 -7.399 -1.34449 19 24 32
15.7328 -7.399 -1.34449 19 24 32
20.5311 -9.71385 0.692291 155 158 96
18.7908 -8.90442 3.80836 29 52 64
20.5508 -9.74787 3.83923 183 95 45
20.5508 -9.74787 3.83923 183 95 45
21.1939 -10.0418 2.01971 25 27 38
7.39053 -3.4004 -1.56791 19 13 14
20.7229 -9.83836 1.26502 127 156 84
7.39858 -3.41409 -1.55982 11 19 32
20.4366 -9.71163 2.6423 16 31 18
20.5017 -9.77129 2.7071 64 41 26
20.656 -9.83428 1.26062 147 160 78
20.6594 -9.83412 1.03528 167 145 98
20.4224 -9.74024 3.61854 15 21 14
20.4224 -9.74024 3.61854 15 21 14
20.7235 -9.8666 1.23674 146 129 59
7.14088 -3.30908 -1.56253 86 71 66
20.3267 -9.70345 1.29453 84 87 38
12.2591 -5.78402 -1.35565 126 99 78
19.7334 -9.43109 3.11422 15 24 17
19.9308 -9.54719 2.30166 37 40 19
8.23241 -3.8475 -1.55907 50 27 20
8.67009 -4.05978 -1.53705 36 32 24
20.0089 -9.57671 1.24554 85 50 39
19.9342 -9.57422 2.08415 24 54 89
20.0781 -9.63427 0.839323 94 131 35
19.8545 -9.54489 3.2698 87 61 25
20.0051 -9.60419 1.51826 16 21 14
20.3965 -9.79023 0.993087 84 93 58
20.1947 -9.72408 1.56107 15 17 16
19.8905 -9.57024 0.85778 84 125 87
20.0166 -9.63091 0.754592 115 92 73
19.9429 -9.60099 1.51321 15 18 16
19.1309 -9.22341 3.8007 12 15 13
14.5329 -6.94135 -1.38319 250 147 75
20.6465 -9.94747 1.96473 13 16 11
8.08339 -3.80755 -1.54193 25 22 25
19.6749 -9.50895 2.99681 129 171 95
19.9596 -9.62737 0.398529 110 132 74
19.6749 -9.50895 2.99681 129 171 95
19.8911 -9.59732 0.830662 178 198 139
19.7581 -9.53765 1.49828 14 19 16
19.6153 -9.47929 2.93372 135 179 129
19.8356 -9.59387 0.422567 81 73 58
19.8412 -9.59359 0.0443447 112 120 96
19.6159 -9.50604 2.90694 62 92 86
19.6807 -9.53552 2.62093 11 13 15
19.6163 -9.50602 2.88018 112 78 76
19.6799 -9.53556 2.67463 13 14 15
19.834 -9.59395 0.530631 16 25 19
19.7543 -9.56478 1.76758 14 19 18
19.5671 -9.50266 2.15062 12 15 16
20.3953 -9.90156 1.13203 56 46 33
19.4019 -9.41433 1.25778 200 173 136
12.0564 -5.78307 -1.36636 29 34 40
20.6092 -9.99779 0.0208257 169 159 94
10.8226 -5.17648 -1.3905 45 48 40
19.539 -9.50404 4.04492 71 56 28
19.4019 -9.41433 1.25778 200 173 136
10.8582 -5.19406 -1.38039 71 31 43
19.5392 -9.53072 4.04491 86 86 21
19.5475 -9.53031 3.48462 103 139 93
19.7543 -9.61867 1.79447 14 18 17
19.5475 -9.53031 3.48462 103 139 93
20.0138 -9.74019 0.999984 95 78 34
19.6779 -9.58938 2.83568 120 110 101
7.82893 -3.71433 -1.53551 200 184 130
19.7175 -9.61429 0.177801 124 95 42
7.81076 -3.71574 -1.53198 209 216 174
7.3912 -3.50817 -1.55818 32 21 17
20.9525 -10.2207 -0.320163 162 150 123
19.6702 -9.61662 3.3726 38 76 63
10.0176 -4.82046 -1.45069 55 38 28
19.7181 -9.64112 0.150938 82 168 96
19.6899 -9.64251 2.05708 70 70 58
19.6704 -9.64347 3.37258 42 69 72
19.6262 -9.61263 2.26455 54 67 43
10.0174 -4.82047 -1.43726 43 36 41
19.7177 -9.64114 0.177785 139 168 103
19.7173 -9.64116 0.204632 47 137 121
19.6201 -9.63971 2.69275 5 11 11
19.6545 -9.63801 0.364333 27 28 23
16.9761 -8.29349 -1.28577 166 156 142
19.1071 -9.37614 1.62807 11 11 16
19.6545 -9.63801 0.364333 27 28 23
8.08387 -3.87207 -1.54197 30 27 25
19.6937 -9.66918 1.81544 13 17 14
19.6835 -9.69654 2.51344 152 96 128
19.7348 -9.7274 3.1679 11 16 11
6.97962 -3.33243 -1.54584 49 36 27
19.6835 -9.69654 2.51344 152 96 128
19.8941 -9.78696 0.72214 34 26 31
6.97962 -3.33243 -1.54584 49 36 27
7.36751 -3.53525 -1.57267 214 183 128
19.7354 -9.75431 3.14095 16 14 14
19.833 -9.78319 0.69261 25 19 13
7.36751 -3.53525 -1.57267 214 183 128
7.63434 -3.66863 -1.5685 109 88 75
19.6933 -9.72292 1.8691 11 13 13
19.7131 -9.72194 0.526747 24 59 40
19.1136 -9.42791 1.2115 22 23 15
19.2869 -9.51437 1.197 22 35 85
19.8292 -9.81041 0.962752 83 116 101
19.4891 -9.66041 3.47351 14 13 12
19.8288 -9.81043 0.989768 78 123 97
18.8848 -9.34092 1.4276 204 187 78
19.6258 -9.71975 2.34478 8 10 10
18.9408 -9.39476 1.43209 132 138 88
19.305 -9.59825 3.94157 68 43 66
19.8294 -9.83742 0.962735 76 66 82
14.9016 -7.34245 -1.33651 29 28 25
19.7084 -9.7759 0.875725 68 83 93
14.8676 -7.32524 -1.35367 22 28 39
19.8562 -9.87017 3.3238 13 23 36
14.9016 -7.34245 -1.33651 29 28 25
19.5738 -9.71587 1.80365 12 12 12
19.7169 -9.80233 0.311921 11 15 18
19.6056 -9.7743 3.73644 10 12 11
18.9973 -9.44893 1.43661 144 143 143
19.3974 -9.65256 1.68058 46 90 27
7.9408 -3.85351 -1.54658 107 66 48
19.9675 -9.92617 0.0177283 64 31 21
19.7201 -9.80218 0.0971442 25 28 22
19.9114 -9.89457 -0.389073 142 130 89
19.7845 -9.85968 -0.117791 30 26 20
8.5052 -4.1495 -1.50817 42 40 33
19.8963 -9.92242 0.640753 22 25 16
19.9136 -9.92157 -0.524595 126 135 98
19.9064 -9.92193 -0.0367746 22 29 22
19.7896 -9.85942 -0.467897 95 123 63
19.5727 -9.76931 1.91034 12 12 8
19.8348 -9.91824 0.638494 19 12 9
19.6768 -9.85802 3.05029 67 89 70
19.3939 -9.70562 1.94489 7 11 10
19.6768 -9.85802 3.05029 67 89 70
7.24175 -3.52008 -1.58426 113 87 58
19.5606 -9.79659 2.73741 56 117 52
19.8344 -9.91826 0.66551 10 14 9
19.6108 -9.79413 -0.650989 38 46 34
19.6231 -9.82699 2.58558 15 12 12
10.8774 -5.36362 -1.38272 84 42 47
19.5602 -9.79661 2.76409 93 132 61
7.36759 -3.58408 -1.55317 30 19 19
7.82081 -3.82412 -1.5442 127 109 68
19.3476 -9.70162 1.12174 11 11 16
7.88509 -3.85675 -1.54629 114 100 73
19.8346 -9.94528 0.665494 13 16 12
7.38383 -3.60203 -1.55655 28 18 18
8.19341 -4.01333 -1.55164 16 23 23
19.7147 -9.88302 0.4998 10 9 22
14.0328 -6.98068 -1.43189 100 97 80
19.7841 -9.91358 -0.0639617 18 18 21
19.846 -9.97175 -0.0909681 14 18 13
19.7189 -9.90967 0.231313 74 94 84
7.66071 -3.75284 -1.55352 86 74 44
19.7189 -9.90967 0.231313 74 94 84
14.0026 -6.98423 -1.42891 105 103 81
20.0946 -10.0988 -0.036486 23 14 12
19.2828 -9.69855 1.5647 40 28 20
19.2828 -9.69855 1.5647 40 28 20
19.7781 -9.96776 0.366904 121 118 48
19.1063 -9.63663 1.81014 11 10 14
19.1063 -9.63663 1.81014 11 10 14
19.9826 -10.0964 3.29071 7 8 7
19.7958 -10.0012 3.31302 9 10 10
19.6794 -9.93848 2.916 15 18 19
19.4649 -9.81457 1.18211 6 32 23
19.6794 -9.93848 2.916 15 18 19
19.9598 -10.0897 0.615739 11 12 15
18.8311 -9.5182 1.39736 37 52 39
19.4068 -9.81077 1.12537 16 37 10
19.7952 -10.0283 3.36703 7 7 9
18.9689 -9.60566 3.42902 61 29 8
19.2719 -9.75166 2.32657 8 8 8
7.02403 -3.4562 -1.56475 40 29 50
8.53708 -4.23432 -1.42288 22 29 21
18.986 -9.6307 2.29043 7 8 8
18.939 -9.60134 1.66416 113 123 81
19.4292 -9.86938 3.62151 139 115 102
18.939 -9.60134 1.66416 113 123 81
7.36049 -3.62875 -1.59053 165 124 107
19.908 -10.0845 -0.063976 14 15 10
19.4292 -9.86938 3.62151 139 115 102
19.7761 -10.0217 0.528458 14 13 14
19.5243 -9.89817 1.21256 98 76 30
8.48388 -4.20642 -1.49313 132 106 82
19.2774 -9.80396 1.985 81 156 40
19.7946 -10.0478 -0.710394 170 135 109
19.8504 -10.0796 -0.334178 17 14 11
19.277 -9.80398 2.01127 76 123 111
18.8741 -9.59877 2.27626 7 8 6
11.3869 -5.71363 -1.33865 113 90 74
19.7942 -10.0478 -0.683463 135 125 105
19.7078 -10.0177 1.03666 8 10 8
7.75815 -3.84353 -1.55248 37 23 21
18.8741 -9.59877 2.27626 7 8 6
7.36854 -3.65241 -1.5825 134 97 67
19.6475 -10.0132 1.03319 7 9 8
19.1114 -9.74056 1.52371 154 166 95
19.1114 -9.74056 1.52371 154 166 95
19.2764 -9.83029 2.0638 108 83 50
19.977 -10.1705 -0.498973 15 18 17
19.9144 -10.1384 -0.470526 16 17 14
19.2764 -9.83029 2.0638 108 83 50
19.2121 -9.82685 2.50254 188 216 152
19.9146 -10.1655 -0.470543 15 17 15
19.3279 -9.88714 2.54469 180 140 93
19.1031 -9.76702 2.09643 71 75 17
19.6187 -10.0414 2.9869 38 56 36
18.8325 -9.64641 1.37163 11 17 16
8.3579 -4.18552 -1.56009 20 19 18
18.8264 -9.64671 1.78195 157 116 108
18.8264 -9.64671 1.78195 157 116 108
19.5881 -10.0355 1.00304 8 10 8
19.835 -10.1615 0.746408 12 13 13
18.9407 -9.73031 1.61248 44 17 13
14.3424 -7.31287 -1.30755 153 101 67
19.2187 -9.87893 2.08343 131 126 100
18.9971 -9.78549 1.61754 15 17 16
11.2904 -5.73902 -1.4034 19 22 11
11.3097 -5.74919 -1.39055 17 23 32
14.2181 -7.2666 -1.3926 19 29 29
9.55611 -4.83389 -1.43633 80 38 47
9.55602 -4.84669 -1.42356 59 33 24
18.7789 -9.69436 1.29058 22 14 7
19.6049 -10.1492 3.97708 9 12 9
19.0481 -9.84129 2.01195 98 116 75
19.3697 -10.0242 3.7422 11 10 11
18.9927 -9.81159 1.92804 20 16 14
18.9927 -9.81159 1.92804 20 16 14
8.23391 -4.15439 -1.50447 50 38 21
8.23391 -4.15439 -1.50447 50 38 21
19.6802 -10.207 2.99638 15 33 14
19.14 -9.92832 3.53914 58 82 40
19.9192 -10.3009 -0.714537 20 18 21
7.85798 -3.96799 -1.52012 77 69 58
13.5939 -6.97727 -1.42516 121 161 87
9.83951 -5.00854 -1.37278 160 101 91
18.7733 -9.7458 1.69965 17 25 15
18.7188 -9.71687 1.6689 16 19 15
19.9808 -10.3607 -0.662212 17 17 17
13.4815 -6.93635 -1.43191 110 87 116
20.0256 -10.3945 0.535936 70 99 52
20.0256 -10.3945 0.535936 70 99 52
9.78147 -4.9911 -1.37796 146 119 95
18.7263 -9.7165 1.15904 17 23 13
19.9812 -10.3607 -0.689399 18 16 16
18.8213 -9.77524 2.19219 205 150 97
19.9134 -10.3283 -0.308037 13 13 10
18.9812 -9.86393 2.73019 28 68 46
18.877 -9.83023 2.19895 140 162 88
18.67 -9.71327 1.28247 26 39 18
18.8938 -9.82941 1.0672 68 71 21
18.7625 -9.77192 2.44112 65 62 23
19.981 -10.3879 -0.662229 16 15 15
18.8211 -9.80091 2.21782 82 131 103
7.38486 -3.73903 -1.55664 12 15 19
19.1945 -10.0111 3.78584 48 70 17
19.7116 -10.2592 0.902274 133 134 70
9.59737 -4.90697 -1.39112 113 173 137
19.7116 -10.2592 0.902274 133 134 70
14.1871 -7.3463 -1.35136 23 23 28
7.13568 -3.61702 -1.56109 195 154 143
19.9138 -10.3825 -0.30807 14 10 10
18.7733 -9.79696 1.72518 19 28 14
10.616 -5.45819 -1.393 60 71 63
19.7983 -10.317 -0.818285 78 81 68
19.4026 -10.1283 1.57455 152 125 40
14.1564 -7.32993 -1.36764 40 36 28
18.8213 -9.82656 2.2178 76 129 109
14.1871 -7.3463 -1.35136 23 23 28
18.8213 -9.82656 2.2178 76 129 109
19.1706 -10.0313 1.5284 29 72 76
18.8234 -9.85211 2.08956 32 57 32
7.65312 -3.90074 -1.55186 101 60 39
18.9279 -9.91161 2.56693 16 18 13
18.9707 -9.94212 3.48056 8 8 8
18.7174 -9.79345 1.79631 41 57 71
11.137 -5.76387 -1.34001 108 79 64
10.2687 -5.30207 -1.38988 158 104 68
18.8568 -9.93416 3.61359 82 132 113
18.8568 -9.93416 3.61359 82 132 113
18.7716 -9.87379 1.87855 98 81 82
9.074 -4.6786 -1.47426 37 28 40
18.8261 -9.90329 1.93566 113 136 89
18.658 -9.81558 2.1466 83 93 95
13.7962 -7.19505 -1.38987 58 34 34
19.8593 -10.4576 -0.73965 15 14 13
20.361 -10.7276 -0.507454 7 11 10
20.8062 -10.9763 0.758392 10 7 7
11.0631 -5.75367 -1.40557 33 24 9
20.8738 -11.0127 0.78959 10 7 9
18.0936 -9.53015 1.06738 67 97 107
18.4024 -9.69697 1.28769 69 155 116
19.4878 -10.3257 3.89866 13 17 10
8.00837 -4.13183 -1.50629 28 34 27
18.4026 -9.72202 1.28767 132 175 116
19.3242 -10.2301 2.96612 8 9 9
18.5078 -9.77908 1.37123 32 101 56
18.0938 -9.55477 1.06736 90 109 98
8.08503 -4.17322 -1.46689 143 104 75
20.2971 -10.7207 -0.533696 11 12 9
18.7648 -9.92528 2.36432 14 14 13
20.4847 -10.8255 -0.0361154 10 10 11
18.4026 -9.72202 1.28767 132 175 116
7.76823 -4.01318 -1.54405 38 29 22
18.601 -9.86283 2.36808 10 12 11
18.4024 -9.74709 1.31271 115 132 65
18.4024 -9.74709 1.31271 115 132 65
18.7241 -9.92065 1.41384 25 42 23
18.9244 -10.008 -0.913486 158 123 95
18.7695 -9.95063 2.05748 11 15 12
18.7148 -9.9466 2.05115 11 15 12
19.8435 -10.5395 0.367952 7 9 9
19.7351 -10.4729 -0.574446 13 14 13
19.712 -10.4741 0.982683 11 10 9
19.7825 -10.5064 0.339641 9 9 9
18.6659 -9.9169 1.6636 22 16 12
18.3874 -9.77288 2.33961 10 10 9
18.874 -10.0362 2.50749 57 110 54
19.712 -10.4741 0.982683 11 10 9
18.7758 -9.9759 1.64837 16 11 13
19.7351 -10.4729 -0.574446 13 14 13
19.903 -10.5999 0.531931 10 8 7
7.87732 -4.09277 -1.52372 84 54 56
18.437 -9.85188 2.59783 11 15 11
20.2349 -10.8343 3.72033 31 38 12
18.6064 -9.93862 2.03859 19 35 13
19.6162 -10.4612 -0.678081 15 16 21
18.4048 -9.82214 1.18743 19 25 21
18.4918 -9.88069 2.50489 10 11 8
19.6768 -10.4937 -0.706732 16 17 18
18.2907 -9.79057 1.80265 73 88 91
19.7301 -10.5537 -0.198637 86 123 99
19.2677 -10.3301 2.9042 15 64 29
19.7381 -10.5533 -0.735578 14 15 16
18.5091 -9.90504 1.34596 113 146 59
19.9135 -10.6536 -0.14563 185 101 63
19.9135 -10.6536 -0.14563 185 101 63
18.1964 -9.73368 1.14813 21 20 18
19.6778 -10.5205 -0.760275 13 15 14
18.6605 -9.99346 2.07023 19 99 60
19.7337 -10.5536 -0.44026 14 14 11
17.8229 -9.54218 2.41023 10 12 10
18.0324 -9.67533 1.84949 75 100 55
18.3481 -9.84376 1.48342 74 113 63
19.7335 -10.5804 -0.41343 13 13 10
19.5449 -10.4826 0.121693 136 105 80
9.26387 -4.87877 -1.43035 48 37 35
19.7335 -10.5804 -0.41343 13 13 10
19.3088 -10.3544 0.145592 136 80 53
7.00388 -3.64871 -1.5693 191 176 153
10.2377 -5.40866 -1.38574 29 33 43
9.55699 -5.05128 -1.38533 136 104 91
18.1949 -9.78329 1.27189 98 109 51
17.6279 -9.48355 2.33447 11 10 16
7.25923 -3.79705 -1.5782 92 155 130
13.8553 -7.39492 -1.32084 129 86 59
17.6279 -9.48355 2.33447 11 10 16
7.394 -3.88044 -1.55841 23 19 16
21.7283 -11.7349 0.825089 81 102 54
21.655 -11.6946 0.792483 79 87 36
21.5082 -11.6148 0.845222 96 95 50
19.6765 -10.6009 -0.626507 15 12 15
21.5082 -11.6148 0.845222 96 95 50
9.25131 -4.89647 -1.44078 85 67 30
16.6994 -9.00513 2.91167 11 13 11
9.27703 -4.91061 -1.43233 12 49 38
17.1584 -9.27251 2.15231 58 85 68
19.3635 -10.4654 0.436094 77 43 22
19.3635 -10.4654 0.436094 77 43 22
17.9802 -9.72132 1.99082 18 17 15
17.9802 -9.72132 1.99082 18 17 15
13.8261 -7.4162 -1.31815 120 80 52
17.8838 -9.66605 1.71142 25 35 54
17.8835 -9.66607 1.73576 46 32 13
17.8847 -9.69036 1.66273 126 133 93
18.1929 -9.8577 1.44515 55 64 28
15.6845 -8.48907 2.47072 8 9 10
20.2779 -10.998 0.90258 130 77 33
15.6845 -8.48907 2.47072 8 9 10
17.1586 -9.29586 2.1523 96 107 73
17.8851 -9.69034 1.6384 61 91 89
18.1929 -9.8577 1.44515 55 64 28
19.8557 -10.7821 -0.334611 16 14 12
19.4124 -10.551 1.12491 78 59 24
17.063 -9.26906 2.44211 87 106 30
20.1003 -10.9197 -0.00963208 21 14 15
17.0632 -9.29228 2.44209 95 89 65
19.7395 -10.7413 -0.735694 78 74 37
20.2918 -11.0526 -0.00904474 15 18 15
7.0998 -3.75687 -1.58122 61 51 54
7.75082 -4.11677 -1.52001 59 47 40
18.0913 -9.85042 1.38719 121 96 37
16.7021 -9.09594 2.77525 71 79 130
18.0913 -9.85042 1.38719 121 96 37
16.7455 -9.14287 2.80558 68 60 65
16.8022 -9.16655 1.94498 103 133 72
18.0937 -9.87493 1.23948 22 17 13
10.5831 -5.6958 -1.34619 105 83 71
18.0937 -9.87493 1.23948 22 17 13
20.5636 -11.2921 3.75405 8 8 6
16.746 -9.16564 2.78277 147 160 101
19.7363 -10.7952 -0.494103 137 129 104
16.746 -9.16564 2.78277 147 160 101
19.8405 -10.891 0.745958 17 11 13
19.0774 -10.463 0.350454 20 11 17
17.833 -9.78448 1.8519 85 83 37
19.4746 -10.6895 0.969446 20 9 12
13.5671 -7.38382 -1.31263 26 24 23
13.5671 -7.38382 -1.31263 26 24 23
13.6235 -7.41547 -1.28115 16 16 19
17.2489 -9.46416 2.35216 24 25 26
19.7328 -10.8491 -0.225666 153 139 84
16.627 -9.13799 2.03675 53 58 9
9.05035 -4.88298 -1.43421 161 135 113
13.5389 -7.3864 -1.31 27 21 20
13.567 -7.40216 -1.29432 24 20 23
16.626 -9.13804 2.10457 118 89 40
19.9203 -10.9787 -0.443943 184 164 138
18.6902 -10.2971 0.214581 11 15 12
7.62864 -4.09948 -1.54677 84 74 60
7.09987 -3.80383 -1.56247 16 29 39
17.1171 -9.43351 1.93663 21 26 12
19.7324 -10.94 3.94816 64 66 39
19.7324 -10.94 3.94816 64 66 39
18.6241 -10.2927 1.02467 8 8 10
19.1381 -10.5727 0.143419 16 12 12
17.1537 -9.48294 2.5724 111 86 84
30.8032 -17.101 -0.607725 181 159 145
18.6237 -10.2927 1.05002 9 9 9
17.9366 -9.91313 1.64313 27 23 15
18.6357 -10.2921 0.239062 11 14 18
17.8876 -9.885 1.56526 14 20 22
17.1104 -9.45713 2.40226 39 44 52
18.6357 -10.2921 0.239062 11 14 18
17.8875 -9.90936 1.58959 16 21 21
16.6252 -9.20594 2.19496 84 92 99
17.8936 -9.90906 1.17585 89 66 46
17.8363 -9.88144 1.68196 16 15 14
17.1175 -9.48007 1.9366 18 17 8
7.25981 -3.91239 -1.55905 92 84 63
20.1653 -11.1742 -0.00956732 138 96 59
19.5479 -10.8283 0.0948817 9 12 18
19.4246 -10.762 0.411061 11 11 13
10.5002 -5.73359 -1.40622 34 31 33
17.8875 -9.90936 1.58959 16 21 21
17.8875 -9.90936 1.58959 16 21 21
32.373 -18.0712 -0.325393 230 175 136
10.5003 -5.74767 -1.40623 31 24 28
10.5003 -5.74767 -1.40623 31 24 28
19.6024 -10.8889 0.468909 15 14 14
16.4837 -9.15695 3.09686 11 11 8
19.6012 -10.889 0.548949 10 11 12
19.6611 -10.9229 0.577648 10 12 10
8.74243 -4.75735 -1.47944 114 111 92
8.94134 -4.86968 -1.44107 49 38 35
32.3762 -18.0711 -0.546812 165 132 90
32.5376 -18.2095 -0.193192 241 153 93
8.94143 -4.88162 -1.44108 35 30 30
16.4565 -9.15475 2.08183 116 92 65
17.9418 -9.98612 1.32581 137 156 102
32.5383 -18.2094 -0.237706 236 185 159
16.4582 -9.15466 1.96996 153 171 75
19.6613 -10.9497 0.577632 10 11 9
19.4187 -10.8151 0.833973 12 12 10
17.9415 -9.98614 1.35021 138 215 112
32.5376 -18.2095 -0.193192 241 153 93
16.4578 -9.15468 1.99234 91 137 71
32.3743 -18.1598 -0.369732 185 166 157
19.5627 -10.9074 -0.862685 30 24 17
13.2111 -7.30943 -1.3862 50 38 29
16.4563 -9.17714 2.10419 70 119 112
13.4559 -7.44854 -1.32038 90 71 49
16.4151 -9.17559 2.05389 117 136 129
17.2479 -9.65207 2.51636 96 148 127
17.0613 -9.5479 2.69734 43 67 67
17.2396 -9.65248 3.07971 101 112 49
17.9444 -10.0348 1.17934 21 19 18
17.0616 -9.54788 2.67413 54 112 92
17.2479 -9.65207 2.51636 96 148 127
17.1579 -9.62287 2.3622 19 23 14
17.8483 -10.0022 0.929566 91 156 126
17.8483 -10.0022 0.929566 91 156 126
19.4851 -10.9277 0.385956 61 80 46
17.1479 -9.62336 3.03922 111 128 145
7.53427 -4.12704 -1.46802 135 93 76
7.46881 -4.08894 -1.55413 25 22 21
17.1577 -9.64624 2.38553 27 34 18
16.9246 -9.51729 2.81323 42 27 24
17.0137 -9.56862 2.8751 15 23 19
17.0137 -9.56862 2.8751 15 23 19
16.9246 -9.51729 2.81323 42 27 24
32.3655 -18.2931 0.294443 255 240 161
7.52643 -4.12222 -1.50631 77 47 49
32.3661 -18.2931 0.25016 255 236 169
17.9489 -10.1079 0.910822 88 93 69
12.3609 -6.9111 -1.41622 148 130 93
17.2006 -9.71951 2.62629 23 26 22
17.2006 -9.71951 2.62629 23 26 22
17.4471 -9.8531 1.80921 83 94 73
17.352 -9.79901 1.84607 119 124 69
17.846 -10.0752 1.12367 75 84 69
17.7492 -10.0427 0.996275 28 27 10
17.647 -9.98679 1.30227 16 15 13
30.1935 -17.1865 1.13705 100 83 41
30.1941 -17.1865 1.09575 108 71 43
16.6588 -9.43479 2.94885 88 96 79
16.4853 -9.33639 3.07432 53 94 41
17.4459 -9.87691 1.90412 111 185 143
17.3519 -9.82263 1.86966 110 136 92
10.4508 -5.84572 -1.37175 97 72 54
31.8748 -18.1892 0.506798 17 24 29
32.2074 -18.3753 -0.0599996 183 119 118
16.44 -9.33462 3.28983 17 19 11
17.551 -9.95516 1.27076 27 39 18
16.586 -9.40719 2.05358 29 35 19
32.2074 -18.3753 -0.0599996 183 119 118
16.5863 -9.40717 2.03103 19 18 18
17.405 -9.87306 1.47266 71 86 65
17.3044 -9.84286 1.93492 112 86 48
25.7019 -14.6601 -0.83397 36 31 32
31.8758 -18.2328 0.463162 54 46 19
17.311 -9.84253 1.48771 79 95 60
17.2512 -9.81629 2.37542 91 149 76
32.2065 -18.4194 0.0280866 197 191 212
9.20142 -5.1389 -1.39624 103 103 85
17.2511 -9.83978 2.39888 92 140 104
17.58 -10.0317 2.59065 17 18 11
9.051 -5.06428 -1.38598 133 127 94
32.3675 -18.5588 0.294279 228 161 130
26.0168 -14.8774 -0.807934 32 35 37
7.25273 -4.02322 -1.54786 92 77 69
17.6981 -10.1109 1.18574 102 152 109
7.46047 -4.15348 -1.51292 31 33 35
7.46047 -4.15348 -1.51292 31 33 35
30.1972 -17.3516 0.971735 68 55 26
17.108 -9.78334 2.728 94 106 62
16.5301 -9.45071 2.97005 72 38 23
32.3688 -18.6474 0.249941 250 210 155
17.273 -9.88567 0.943534 73 85 51
9.99286 -5.63521 -1.40676 35 25 20
9.99266 -5.63522 -1.39338 27 25 25
31.703 -18.2716 1.41494 17 20 17
7.13112 -3.97142 -1.57854 50 40 29
31.703 -18.2716 1.41494 17 20 17
17.5056 -10.0227 1.14799 100 96 101
26.2324 -15.0729 -0.849905 28 28 23
25.7029 -14.8004 -0.834057 28 23 22
25.7029 -14.8004 -0.834057 28 23 22
12.5275 -7.1243 -1.40102 56 50 46
17.262 -9.9097 1.69465 16 17 9
17.262 -9.9097 1.69465 16 17 9
16.4905 -9.49323 2.80505 11 20 16
16.7168 -9.61819 2.04764 97 164 133
17.3674 -9.98715 0.901883 92 94 68
10.8297 -6.15051 -1.37657 24 36 29
17.2646 -9.93305 1.53033 57 89 48
16.7176 -9.64089 2.00217 123 91 62
16.5431 -9.54007 2.13788 101 60 50
17.4382 -10.0672 2.52104 26 22 15
17.4382 -10.0672 2.52104 26 22 15
19.7463 -11.3856 -0.870326 29 26 22
30.9468 -17.9477 0.235577 255 237 194
17.068 -9.84955 2.39531 30 36 22
30.9468 -17.9477 0.235577 255 237 194
17.1811 -9.902 0.93797 56 63 32
16.8053 -9.71501 2.01319 82 58 61
17.4383 -10.091 2.52102 28 29 11
