ply
format ascii 1.0
element vertex 1719
property double x
property double y
property double z
property float intensity
end_header
20.31 17.7196 -0.007 0.35
20.3266 17.8463 -0.007 0.41
20.3392 17.9718 -0.008 0.29
20.3441 18.09 -0.009 0.56
20.4916 18.3363 -0.011 0
23.3445 21.0826 -0.042 0.25
20.6989 18.8158 -0.015 0.22
20.534 18.7841 -0.013 0.14
20.4718 18.8459 -0.013 0.41
20.4474 18.9421 -0.014 0.39
20.4589 19.0716 -0.015 0.4
20.4975 19.168 -0.015 0.39
20.505 19.2974 -0.016 0.39
20.5125 19.4257 -0.017 0.39
20.5181 19.554 -0.018 0.39
20.5352 19.6927 -0.018 0.29
20.5378 19.8198 -0.019 0.5
20.4194 19.8297 -0.018 0.35
20.4073 20.0054 -0.019 0.38
16.139 15.9279 0.027 0.21
16.0562 15.9471 0.028 0.26
16.0219 16.0129 0.027 0.54
15.9915 16.0829 0.027 0.25
19.7121 19.9411 -0.015 0.14
19.6297 19.9212 -0.015 0.39
19.527 19.9406 -0.014 0.32
19.4174 19.9548 -0.014 0.43
19.3369 19.997 -0.013 0.55
19.2222 20.1301 -0.013 0.53
19.1339 20.164 -0.013 0.15
19.1229 20.2797 -0.014 0.39
19.032 20.2465 -0.013 0.16
15.475 16.5742 0.027 0.34
15.377 16.5727 0.028 0.29
15.037 16.3097 0.031 0.3
14.8397 16.1978 0.033 0.38
14.925 16.3939 0.031 0.3
14.8984 16.468 0.031 0.38
15.1519 16.8 0.028 0.22
14.8738 16.5982 0.03 0.32
14.5766 16.3697 0.033 0.37
14.654 16.5605 0.032 0.24
14.4974 16.488 0.033 0.39
14.5709 16.6767 0.031 0.4
14.6404 16.8632 0.03 0.21
14.5078 16.7635 0.031 0.25
14.3753 16.7169 0.032 0.45
14.4583 16.9199 0.031 0.19
17.1739 20.2177 -0.003 0.52
14.7989 17.5382 0.025 0.2
14.6472 17.4698 0.026 0.17
16.8803 20.2565 -0.002 0.56
14.56 17.5889 0.026 0.23
14.3988 17.4501 0.028 0.32
16.6112 20.2551 -0.001 0.25
16.5301 20.2852 0 0.24
16.426 20.2876 0 0.58
12.4587 15.4972 0.049 0.24
16.2427 20.3222 0.001 0.35
16.1444 20.3288 0.001 0.44
16.0856 20.3218 0.002 0.37
15.9902 20.3314 0.002 0.4
15.935 20.3925 0.002 0.6
15.8026 20.487 0.002 0.56
15.7111 20.5018 0.002 0.18
15.6262 20.5239 0.003 0.43
15.559 20.5025 0.003 0.25
15.4588 20.505 0.004 0.27
15.3731 20.524 0.004 0.25
15.2634 20.5122 0.004 0.3
15.0108 20.4393 0.006 0.4
14.9347 20.4707 0.006 0.38
14.8742 20.4556 0.007 0.41
14.8239 20.5208 0.006 0.57
14.7258 20.5204 0.007 0.14
11.9986 16.84 0.043 0.42
14.6528 20.693 0.006 0.25
14.5481 20.6813 0.007 0.17
14.4662 20.7045 0.007 0.43
14.4106 20.6935 0.007 0.24
11.9949 17.3482 0.04 0.3
14.2347 20.7164 0.008 0.2
11.8747 17.407 0.04 0.17
13.936 20.5589 0.01 0.21
13.8629 20.5894 0.01 0.39
13.7717 20.5932 0.011 0.47
13.6928 20.6164 0.011 0.29
13.6316 20.5943 0.011 0.49
13.5509 20.6125 0.011 0.3
13.4645 20.6215 0.012 0.48
13.4076 20.6765 0.012 0.38
13.4228 20.8431 0.011 0.38
13.4427 21.0179 0.009 0.33
13.453 21.1804 0.008 0.55
13.4344 21.2248 0.008 0.18
13.5139 21.4987 0.006 0.43
13.4512 21.5476 0.006 0.38
13.4632 21.7191 0.004 0.2
13.3928 21.7577 0.005 0.3
13.3063 21.7706 0.005 0.2
13.2217 21.7857 0.005 0.17
12.2958 20.4796 0.018 0.41
12.2228 20.5051 0.018 0.3
12.1386 20.5091 0.018 0.48
12.0591 20.5224 0.018 0.32
11.9787 20.5326 0.019 0.62
9.13852 15.7895 0.062 0.24
9.06867 15.7841 0.062 0.35
9.03658 15.786 0.063 0.39
9.00454 15.8439 0.062 0.48
11.8837 21.0466 0.015 0.31
11.806 21.0649 0.016 0.32
11.72 21.0649 0.016 0.32
11.6404 21.0791 0.016 0.33
11.5572 21.0832 0.016 0.32
11.5132 21.0826 0.017 0.32
11.43 21.0867 0.017 0.31
11.3478 21.0929 0.017 0.33
11.2693 21.1051 0.017 0.34
11.1927 21.1215 0.018 0.34
11.1067 21.1195 0.018 0.32
11.0292 21.1328 0.018 0.32
10.9517 21.1461 0.018 0.34
10.9012 21.1313 0.019 0.24
10.5904 20.6882 0.023 0.27
10.5356 20.7413 0.023 0.65
10.3515 20.5388 0.025 0.26
10.3303 20.6591 0.024 0.27
10.2802 20.7194 0.024 0.34
10.2019 20.7267 0.024 0.47
10.159 20.7212 0.024 0.35
10.0846 20.7336 0.024 0.47
10.0119 20.7501 0.024 0.36
9.93277 20.7533 0.025 0.46
9.86391 20.7769 0.025 0.35
9.7811 20.77 0.025 0.46
9.70762 20.7825 0.025 0.36
9.63228 20.7908 0.025 0.48
9.59506 20.7965 0.025 0.38
9.51782 20.8018 0.026 0.48
9.44713 20.8204 0.026 0.36
9.36625 20.8156 0.026 0.47
9.29932 20.8412 0.026 0.35
9.24071 20.8862 0.026 0.47
9.19787 20.9668 0.025 0.69
9.22558 21.1188 0.024 0.35
9.2234 21.2959 0.023 0.29
9.14985 21.3103 0.023 0.29
9.07734 21.3238 0.023 0.29
9.001 21.3321 0.023 0.29
8.91644 21.3182 0.024 0.25
8.65719 20.9769 0.027 0.41
8.55896 20.9245 0.028 0.5
8.48194 20.9238 0.028 0.38
8.40956 20.9332 0.028 0.49
8.33805 20.9468 0.028 0.36
8.26106 20.9451 0.028 0.48
8.19237 20.9637 0.029 0.36
8.13841 21.0188 0.028 0.49
8.10863 21.0408 0.028 0.66
8.12978 21.2947 0.026 0.32
8.11234 21.4502 0.025 0.29
8.03804 21.4576 0.025 0.29
7.96284 21.462 0.025 0.29
7.88678 21.4623 0.026 0.29
7.81158 21.4667 0.026 0.23
7.57257 21.1191 0.029 0.44
7.48481 21.0821 0.03 0.41
7.39977 21.0531 0.03 0.5
7.32664 21.0555 0.03 0.39
7.25798 21.0731 0.03 0.52
7.18667 21.0807 0.03 0.38
7.14601 21.0702 0.031 0.5
7.0765 21.0838 0.031 0.37
7.00523 21.0903 0.031 0.5
6.93943 21.112 0.031 0.37
6.86447 21.1094 0.031 0.5
6.79775 21.1291 0.031 0.36
6.72376 21.1275 0.031 0.5
6.65524 21.1411 0.031 0.38
6.61647 21.1338 0.031 0.51
6.54978 21.1525 0.031 0.38
6.47589 21.1479 0.032 0.51
6.4082 21.1665 0.032 0.37
6.33611 21.168 0.032 0.49
6.26945 21.1857 0.032 0.36
6.19739 21.1862 0.032 0.48
6.16585 21.2011 0.032 0.38
6.08745 21.1824 0.032 0.64
5.61511 19.78 0.044 0.31
5.54368 19.7625 0.044 0.4
5.48287 19.7844 0.044 0.34
5.42644 19.8245 0.044 0.46
5.38161 19.9049 0.043 0.17
5.71003 21.2452 0.033 0.37
5.63722 21.2387 0.033 0.5
5.57056 21.2564 0.033 0.36
5.49939 21.2599 0.033 0.48
5.43191 21.2725 0.033 0.37
5.36081 21.274 0.033 0.47
5.29236 21.2857 0.033 0.35
5.22488 21.2983 0.033 0.48
5.18987 21.2981 0.033 0.36
5.12411 21.3188 0.033 0.42
5.07048 21.393 0.033 0.69
5.03516 21.5449 0.032 0
4.95014 21.4868 0.032 0
4.88348 21.5045 0.032 0
4.81152 21.502 0.032 0
4.78689 21.5482 0.032 0
4.70975 21.5225 0.032 0.06
4.48817 21.4777 0.033 0.46
4.40697 21.4249 0.034 0.46
4.32834 21.3841 0.034 0.52
4.26265 21.4028 0.034 0.39
4.22592 21.3945 0.034 0.5
4.15929 21.4112 0.034 0.39
4.08848 21.4047 0.034 0.58
4.02443 21.4335 0.034 0.34
3.96448 21.4884 0.034 0.57
3.90714 21.5545 0.033 0.66
3.84629 21.6064 0.033 0.38
3.81121 21.6082 0.033 0.23
3.74211 21.6098 0.033 0.26
3.67531 21.6314 0.033 0.24
3.60786 21.6431 0.033 0.27
3.53626 21.6306 0.033 0.23
3.39129 21.5985 0.034 0.47
3.34892 21.551 0.034 0.47
3.27164 21.5003 0.035 0.52
3.20678 21.524 0.034 0.32
3.13606 21.5146 0.035 0.52
3.06941 21.5322 0.034 0.32
3.00045 21.5298 0.035 0.52
2.93468 21.5505 0.034 0.31
2.86401 21.5401 0.035 0.61
2.63115 20.042 0.047 0.32
2.57028 20.0659 0.046 0.35
2.50452 20.0576 0.047 0.64
2.42662 19.9388 0.048 0.29
2.38041 20.0873 0.046 0.32
2.31635 20.0881 0.047 0.51
2.25455 20.1099 0.046 0.32
2.22185 20.1008 0.047 0.52
2.15936 20.1136 0.046 0.33
2.09471 20.1024 0.047 0.52
2.03367 20.1312 0.046 0.32
1.96895 20.122 0.047 0.52
1.90794 20.1499 0.046 0.33
1.84312 20.1436 0.046 0.54
1.81344 20.1626 0.046 0.34
1.7479 20.1483 0.047 0.53
1.68599 20.1731 0.046 0.32
1.62224 20.1649 0.046 0.5
1.55876 20.1777 0.046 0.33
1.49548 20.1845 0.046 0.52
1.43372 20.2053 0.046 0.31
1.36897 20.1971 0.046 0.49
1.33853 20.209 0.046 0.33
1.27381 20.1998 0.046 0.53
1.21108 20.2196 0.046 0.34
1.14719 20.2154 0.046 0.54
1.08443 20.2362 0.046 0.34
1.02047 20.2339 0.046 0.52
0.957772 20.2528 0.046 0.3
0.925757 20.2526 0.046 0.55
0.863271 20.2655 0.046 0.32
0.799205 20.2662 0.046 0.54
0.736545 20.2841 0.046 0.34
0.672619 20.2808 0.046 0.53
0.608959 20.2986 0.046 0.33
0.544697 20.2764 0.046 0.63
0.481827 20.3002 0.046 0.26
0.337789 15.5423 0.083 0.22
0.289644 15.5456 0.083 0.56
0.240765 15.5699 0.083 0.23
0.258846 20.3244 0.046 0.42
0.194571 20.3312 0.046 0.44
0.13133 20.337 0.046 0.41
0.066985 20.3457 0.046 0.41
0.0353884 20.3336 0.046 0.51
-0.028452 20.2133 0.047 0.3
-0.0926447 20.1891 0.047 0.47
-0.155911 20.2529 0.046 0.33
-0.218635 20.1006 0.047 0.42
-0.281444 20.0654 0.048 0.43
-0.344161 20.0562 0.048 0.4
-0.375269 20.0301 0.048 0.25
-0.440502 20.1789 0.047 0.56
-0.503521 20.1497 0.047 0.37
-0.571347 20.3154 0.046 0.34
-0.636424 20.3452 0.045 0.25
-0.703491 20.4319 0.045 0.52
-0.768499 20.4596 0.045 0.32
-0.833961 20.5004 0.044 0.47
-0.868965 20.5572 0.044 0.48
-0.93417 20.5619 0.044 0.48
-0.999619 20.5736 0.044 0.38
-1.06368 20.5744 0.044 0.52
-1.12938 20.5931 0.043 0.4
-1.19448 20.5949 0.043 0.43
-1.25989 20.6056 0.043 0.42
-1.29312 20.6114 0.043 0.43
-1.3585 20.6212 0.043 0.48
-1.42473 20.6268 0.043 0.45
-1.48966 20.6236 0.043 0.45
-1.55511 20.6353 0.043 0.45
-1.62024 20.638 0.043 0.45
-1.68673 20.6507 0.043 0.44
-1.71995 20.6566 0.043 0.44
-1.78626 20.6642 0.042 0.45
-1.85126 20.663 0.042 0.68
-1.90978 20.5909 0.043 0.38
-1.9758 20.5906 0.043 0.34
-2.03478 20.5315 0.043 0.51
-2.09347 20.4644 0.044 0.34
-2.14186 20.3026 0.045 0.38
-2.17823 20.3414 0.045 0.39
-2.26299 20.5335 0.043 0.41
-2.32182 20.4704 0.044 0.28
-2.40422 20.6237 0.042 0.41
-2.46759 20.6044 0.042 0.51
-2.51252 20.4298 0.044 0.24
-2.60248 20.6277 0.042 0.56
-2.67 20.6414 0.042 0.28
-2.71139 20.709 0.041 0.59
-2.78668 20.7734 0.041 0.4
-2.85544 20.794 0.04 0.46
-2.92254 20.7957 0.04 0.47
-2.98981 20.8023 0.04 0.46
-3.05826 20.8139 0.04 0.47
-3.12546 20.8186 0.04 0.46
-3.16072 20.8254 0.04 0.46
-3.22675 20.8251 0.04 0.61
-3.29485 20.8267 0.04 0.39
-3.36457 20.8463 0.039 0.46
-3.43406 20.8589 0.039 0.45
-3.50112 20.8595 0.039 0.45
-3.57046 20.8681 0.039 0.43
-3.60593 20.8809 0.039 0.44
-3.67268 20.8725 0.039 0.44
-3.74088 20.8772 0.039 0.44
-3.80535 20.8609 0.039 0.44
-3.86482 20.8158 0.039 0.41
-3.92915 20.7955 0.039 0.45
-3.99127 20.7694 0.039 0.35
-4.06058 20.7769 0.039 0.45
-4.07995 20.7012 0.04 0.41
-4.12377 20.5806 0.04 0.42
-4.18592 20.5554 0.041 0.39
-4.26981 20.6366 0.04 0.39
-4.33673 20.6332 0.04 0.23
-4.42517 20.7302 0.039 0.48
-4.50888 20.8063 0.038 0.36
-4.51903 20.6959 0.039 0.42
-4.57635 20.6469 0.039 0.36
-4.64904 20.6653 0.039 0.37
-4.70761 20.6233 0.039 0.37
-4.76141 20.5594 0.04 0.35
-4.866 20.7178 0.038 0.39
-4.91511 20.634 0.039 0.43
-4.94567 20.621 0.039 0.33
-5.01591 20.6265 0.039 0.32
-5.14453 20.8712 0.036 0.52
-5.15404 20.6277 0.038 0.28
-5.22079 20.6194 0.038 0.28
-5.37325 20.9452 0.035 0.55
-5.3577 20.6146 0.038 0.38
-5.42563 20.6112 0.038 0.28
-5.54373 20.9273 0.035 0.2
-5.62874 20.9833 0.035 0.61
-5.62048 20.6895 0.037 0.24
-5.73299 20.8456 0.036 0.23
-5.84883 21.0107 0.034 0.59
-5.92209 21.0171 0.034 0.34
-5.96692 20.9255 0.034 0.37
-10.4763 36.5887 -0.094 0
-19.8376 68.5554 -0.357 0
-20.6446 70.5165 -0.373 0
-20.9538 70.7478 -0.376 0
-21.1336 70.5384 -0.375 0
-21.2865 70.2459 -0.373 0
-11.1941 36.4846 -0.095 0
-21.9616 70.8667 -0.379 0
-22.0352 70.7101 -0.378 0
-22.2051 70.477 -0.377 0
-22.981 72.1499 -0.391 0
-23.2693 72.2679 -0.393 0
-23.4106 71.9318 -0.391 0
-23.4772 71.3741 -0.387 0
-23.7756 71.5238 -0.388 0
-5.4038 15.4588 0.077 0.12
-5.43768 15.3976 0.077 0.32
-5.48285 15.373 0.077 0.33
-5.54793 15.4028 0.077 0.49
-5.65358 15.6202 0.075 0
-25.1563 62.5792 -0.326 0.07
-15.7519 38.8059 -0.124 0.15
-15.7856 38.5396 -0.122 0.11
-15.8491 38.5223 -0.122 0.14
-15.8403 38.1574 -0.12 0.15
-15.631 37.3222 -0.113 0.23
-15.7767 37.3391 -0.114 0.36
-15.6663 36.7556 -0.109 0.18
-15.8219 36.8002 -0.11 0.18
-16.3824 37.7773 -0.119 0.15
-16.0183 36.7784 -0.11 0.45
-16.2021 36.883 -0.112 0.23
-16.452 37.1355 -0.114 0.21
-16.463 36.8469 -0.112 0.19
-16.5261 36.6776 -0.111 0.21
-16.5915 36.5162 -0.11 0.19
-16.6754 36.3972 -0.11 0.46
-17.0981 37.0128 -0.116 0.12
-17.1227 36.9129 -0.115 0.4
-27.4472 58.7249 -0.305 0
-17.4211 36.9475 -0.116 0.12
-17.4951 36.8038 -0.115 0.22
-17.6243 36.7783 -0.116 0.35
-28.1975 58.4055 -0.305 0.23
-28.332 58.2157 -0.305 0.23
-28.2855 57.8891 -0.302 0.19
-28.3415 57.543 -0.3 0.22
-28.3955 57.1979 -0.298 0.19
-28.4453 56.8489 -0.295 0.22
-28.4889 56.4912 -0.293 0.2
-28.5412 56.1551 -0.291 0.23
-28.5861 55.8094 -0.288 0.18
-28.5469 55.5165 -0.286 0.23
-28.5911 55.1768 -0.284 0.19
-28.6396 54.8469 -0.282 0.21
-28.6861 54.5181 -0.28 0.19
-28.7339 54.1942 -0.278 0.21
-28.7818 53.8763 -0.276 0.18
-28.8287 53.5585 -0.274 0.21
-28.7827 53.2719 -0.271 0.18
-28.8298 52.9601 -0.27 0.21
-28.8717 52.6405 -0.267 0.19
-28.9192 52.3376 -0.266 0.22
-28.9592 52.023 -0.264 0.2
-29.0101 51.7311 -0.262 0.23
-29.1197 51.5461 -0.261 0.17
-29.3573 51.5879 -0.262 0.33
-29.4984 51.646 -0.263 0.2
-29.7263 51.668 -0.264 0.37
-29.9488 51.6793 -0.265 0.19
-30.183 51.7081 -0.266 0.38
-30.4064 51.7163 -0.267 0.19
-30.6404 51.7422 -0.268 0.36
-30.8691 51.7582 -0.269 0.19
-31.0977 51.7702 -0.27 0.35
-31.2545 51.8468 -0.271 0.18
-31.4872 51.8647 -0.272 0.35
-31.7157 51.8727 -0.273 0.19
-31.9567 51.8983 -0.275 0.35
-32.1988 51.9259 -0.276 0.19
-32.4334 51.9397 -0.277 0.35
-17.8053 28.2928 -0.058 0.13
-17.7698 28.138 -0.056 0.34
-17.9501 28.2277 -0.058 0.3
-18.2085 28.4369 -0.06 0.21
-18.1421 28.138 -0.058 0.35
-18.5463 28.5671 -0.063 0.14
-18.6036 28.4601 -0.062 0.14
-18.533 28.1574 -0.06 0.54
-34.0853 51.6489 -0.282 0.27
-34.3322 51.6703 -0.283 0.25
-34.5821 51.6936 -0.284 0.24
-34.8088 51.6807 -0.285 0.11
-28.7319 42.3621 -0.198 0
-28.7995 42.1756 -0.197 0
-35.6193 51.8235 -0.29 0.14
-28.8989 41.7559 -0.194 0
-29.1065 41.9137 -0.196 0.14
-36.6693 52.4632 -0.299 0
-29.4072 41.7842 -0.197 0.1
-29.5001 41.6378 -0.196 0
-30.9136 43.3465 -0.214 0.15
-28.9761 40.3573 -0.186 0.19
-29.1125 40.2795 -0.186 0
-38.1792 52.6626 -0.307 0.12
-38.4292 52.6589 -0.308 0.18
-29.4024 40.0142 -0.186 0.11
-29.5419 39.9403 -0.186 0.16
-27.0094 36.2735 -0.151 0.16
-27.197 36.2879 -0.152 0
-39.7278 52.6816 -0.314 0.12
-40.0739 52.7936 -0.317 0.18
-40.2669 52.8759 -0.318 0.21
-40.5416 52.8913 -0.32 0.26
-40.8372 52.932 -0.321 0
-41.1274 52.9629 -0.323 0.09
-41.3915 52.9597 -0.324 0.18
-41.6827 52.9886 -0.326 0
-29.4863 37.2306 -0.169 0
-28.0553 35.3074 -0.15 0.07
-28.972 36.227 -0.16 0.15
-28.2072 35.0429 -0.149 0.16
-28.2857 34.9151 -0.148 0.33
-28.4783 34.9284 -0.149 0.18
-28.4399 34.6586 -0.148 0.23
-28.5102 34.522 -0.147 0.11
-28.7788 34.7368 -0.15 0.15
-28.4693 33.9261 -0.143 0.45
-28.473 33.7148 -0.142 0.15
-28.4182 33.4356 -0.14 0.16
-28.7225 33.5811 -0.142 0.09
-28.8481 33.5126 -0.143 0.13
-27.9202 32.1262 -0.13 0.45
-27.9879 32.0007 -0.129 0.19
-28.0711 31.8928 -0.129 0.18
-28.4086 32.0731 -0.132 0.1
-28.5752 32.0583 -0.133 0.15
-28.3773 31.6339 -0.129 0.14
-28.5033 31.5745 -0.129 0.45
-28.5174 31.4909 -0.129 0.23
-28.608 31.3927 -0.129 0.18
-28.9337 31.5504 -0.132 0.42
-29.2583 31.7032 -0.134 0
-29.5952 31.8686 -0.137 0
-29.3322 31.3864 -0.133 0.11
-29.509 31.3773 -0.134 0.12
-30.1034 31.8088 -0.139 0.16
-30.1185 31.7252 -0.139 0.21
-29.6938 31.0806 -0.133 0.15
-28.5943 29.7402 -0.119 0.38
-28.6956 29.6596 -0.119 0.23
-28.9504 29.7358 -0.121 0.23
-28.9374 29.5361 -0.12 0.22
-28.8114 29.2223 -0.118 0.43
-28.7251 29.0432 -0.116 0.2
-28.5578 28.6928 -0.113 0.22
-29.1796 29.1354 -0.119 0.17
-29.2818 29.0528 -0.119 0.2
-29.496 29.0833 -0.121 0.24
-29.5391 28.9427 -0.12 0.26
-29.7956 29.0118 -0.122 0.26
-29.8636 28.8954 -0.122 0.25
-30.0592 28.9936 -0.123 0
-30.2317 28.9776 -0.124 0.12
-31.9506 30.4355 -0.142 0.21
-32.0948 30.3804 -0.142 0.31
-32.2711 30.3562 -0.143 0.11
-29.3295 27.4121 -0.111 0.16
-29.4381 27.3413 -0.111 0.2
-29.5726 27.3796 -0.112 0.16
-31.1027 28.617 -0.127 0.09
-31.0259 28.3665 -0.126 0.14
-29.9198 27.1814 -0.113 0.15
-29.9375 27.0277 -0.112 0
-28.7272 25.607 -0.097 0
-30.6389 27.2273 -0.117 0.09
-30.6224 27.0408 -0.116 0.14
-30.8835 27.0987 -0.118 0.17
-31.1457 27.1566 -0.12 0.17
-31.1736 26.8384 -0.118 0.42
-30.5961 26.1732 -0.112 0.21
-30.6262 26.032 -0.111 0.28
-30.5108 25.8519 -0.109 0.13
-22.2881 18.7556 -0.024 0.28
-22.4189 18.746 -0.024 0.91
-22.6083 18.7834 -0.026 0.91
-22.7792 18.8055 -0.027 0.82
-22.9036 18.7871 -0.028 0.46
-31.6551 25.813 -0.116 0.31
-31.8036 25.8518 -0.117 0.2
-30.7607 24.8416 -0.106 0.19
-30.8785 24.7774 -0.106 0.42
-31.0303 24.7391 -0.107 0.25
-30.9505 24.5178 -0.105 0.27
-31.0179 24.4124 -0.105 0.25
-31.1511 24.3597 -0.106 0.19
-31.2419 24.3515 -0.106 0.3
-31.2095 24.1685 -0.105 0.15
-31.2265 24.0248 -0.105 0.34
-31.3021 23.9271 -0.105 0.31
-34.6722 26.334 -0.137 0.14
-31.7134 23.9278 -0.107 0.43
-31.5896 23.679 -0.105 0.22
-31.5522 23.4962 -0.104 0.27
-31.606 23.4593 -0.104 0.32
-31.6816 23.3606 -0.104 0
-35.5619 26.0538 -0.142 0
-35.4757 25.8196 -0.14 0
-32.3971 23.4216 -0.109 0.07
-36.064 25.9032 -0.144 0.15
-36.3288 25.9219 -0.146 0
-36.5463 25.9894 -0.148 0.13
-34.3743 24.2811 -0.126 0.12
-36.7002 25.7539 -0.148 0.17
-17.2188 11.9854 0.041 0.23
-17.2467 11.9244 0.041 0.13
-32.468 22.3265 -0.105 0.16
-32.7486 22.3687 -0.107 0.16
-32.8504 22.3622 -0.107 0.41
-32.5776 22.0265 -0.104 0.22
-32.8376 22.0524 -0.106 0.23
-32.9942 22.0079 -0.107 0.4
-33.1537 21.9643 -0.108 0.21
-33.2119 21.8532 -0.108 0.31
-34.6852 22.6673 -0.121 0
-35.9646 23.3441 -0.132 0.12
-36.0303 23.3068 -0.132 0
-36.0707 23.1723 -0.132 0.08
-35.3547 22.5549 -0.125 0.17
-35.4085 22.4329 -0.125 0.18
-31.9867 20.1219 -0.092 0.15
-35.7135 22.3132 -0.126 0.14
-33.4342 20.7418 -0.104 0.12
-33.0277 20.4168 -0.1 0.33
-33.0215 20.2699 -0.1 0.23
-33.2455 20.2641 -0.101 0.31
-33.6963 20.3944 -0.105 0.22
-33.3078 20.0158 -0.1 0.29
-33.4407 19.9531 -0.101 0.13
-32.3955 19.1911 -0.091 0.3
-33.3943 19.7136 -0.1 0.18
-32.1093 18.8179 -0.087 0.25
-32.0687 18.6582 -0.087 0.32
-32.7726 18.9308 -0.092 0.25
-32.7862 18.8022 -0.092 0.27
-32.62 18.5699 -0.09 0.29
-32.5457 18.3924 -0.089 0.32
-32.4623 18.2112 -0.088 0.31
-33.3284 18.6282 -0.095 0.12
-33.2185 18.4309 -0.094 0.48
-33.1646 18.2647 -0.093 0.22
-33.0547 18.0684 -0.091 0.29
-33.8904 18.3884 -0.098 0.28
-33.9671 18.2917 -0.098 0.23
-33.9662 18.1537 -0.098 0.2
-33.9241 18.0631 -0.097 0.29
-33.9967 17.9645 -0.097 0.35
-38.6735 20.2847 -0.138 0.14
-38.5029 20.0415 -0.136 0.41
-38.5096 19.8911 -0.136 0.23
-38.6377 19.8036 -0.136 0.25
-38.6384 19.6515 -0.136 0.26
-38.6234 19.567 -0.135 0.22
-30.7194 15.4353 -0.065 0.39
-40.905 20.4029 -0.154 0.18
-33.1663 16.2774 -0.085 0.56
-33.2238 16.1774 -0.085 0.2
-35.147 16.9787 -0.102 0.17
-52.8638 25.3465 -0.256 0
-52.9701 25.2958 -0.257 0
-53.1796 25.1914 -0.258 0
-53.3076 25.0468 -0.258 0
-53.3512 24.8632 -0.258 0
-53.8484 24.8889 -0.262 0.07
-54.016 24.761 -0.263 0.11
-35.4558 16.1084 -0.101 0.17
-35.4585 16.0423 -0.101 0.43
-35.4802 15.9185 -0.101 0.32
-35.4764 15.7835 -0.1 0.28
-35.4819 15.6522 -0.1 0.37
-35.4741 15.5154 -0.099 0.29
-35.4663 15.3796 -0.099 0.34
-35.4718 15.2493 -0.098 0.3
-35.461 15.1126 -0.098 0.32
-35.4293 15.0337 -0.097 0.28
-35.4195 14.898 -0.097 0.32
-35.4179 14.7669 -0.097 0.31
-35.4164 14.6359 -0.096 0.36
-35.3935 14.4966 -0.096 0.29
-35.3483 14.3481 -0.095 0.24
-35.361 14.2246 -0.095 0.44
-35.3059 14.1375 -0.094 0
-42.8035 14.9973 -0.152 0.21
-42.8184 14.8517 -0.151 0.16
-44.2684 15.1993 -0.163 0.31
-42.6822 14.5042 -0.149 0.19
-44.2757 14.8919 -0.162 0.19
-44.2692 14.735 -0.162 0.2
-44.2503 14.6516 -0.162 0.36
-44.2408 14.4938 -0.161 0.23
-44.2485 14.3425 -0.161 0.2
-44.2603 14.193 -0.161 0
-39.8121 12.4892 -0.123 0.32
-39.8659 12.3682 -0.123 0.18
-44.2347 13.5745 -0.159 0.36
-44.0995 13.4571 -0.158 0
-75.3202 15.6839 -0.401 0.16
-75.3338 15.4403 -0.4 0
-75.5256 15.2325 -0.402 0
-76.4883 15.1768 -0.409 0
-77.2029 15.0668 -0.414 0
-48.4063 -11.4944 -0.186 0
-75.4495 -18.1512 -0.406 0
-74.0686 -18.066 -0.395 0
-70.4799 -17.3093 -0.366 0
-70.304 -17.5012 -0.365 0
-69.8149 -17.6122 -0.362 0
-69.4428 -17.7513 -0.359 0
-68.334 -17.6966 -0.351 0
-67.0589 -17.592 -0.341 0
-65.8436 -17.4946 -0.331 0
-65.249 -17.5569 -0.327 0
-64.0438 -17.3407 -0.317 0
-63.3951 -17.379 -0.312 0
-61.6554 -17.1122 -0.299 0
-61.0952 -17.1636 -0.294 0
-60.3311 -17.154 -0.289 0.07
-59.791 -17.2032 -0.285 0
-59.8207 -17.4153 -0.285 0
-59.7567 -17.4991 -0.285 0
-57.1737 -16.9387 -0.264 0.11
-56.7866 -17.0192 -0.261 0
-56.0977 -17.0051 -0.256 0.12
-55.3515 -16.9691 -0.251 0.23
-54.6847 -16.9528 -0.245 0.24
-53.6696 -16.8233 -0.238 0.11
-52.8033 -16.6439 -0.231 0.09
-52.0914 -16.6001 -0.225 0.14
-51.7517 -16.6713 -0.223 0.21
-50.7937 -16.5388 -0.215 0.19
-50.1239 -16.4953 -0.21 0.13
-49.468 -16.4524 -0.205 0.36
-49.1148 -16.5071 -0.203 0.2
-48.3098 -16.3209 -0.196 0.17
-47.8214 -16.3239 -0.192 0.32
-47.1344 -16.2559 -0.187 0.13
-46.7323 -16.2809 -0.184 0.39
-46.3658 -16.3171 -0.182 0.19
-45.7731 -16.2704 -0.177 0.18
-45.0282 -16.1663 -0.171 0.23
-44.7935 -16.2412 -0.17 0.18
-44.1663 -16.0922 -0.165 0.2
-43.8279 -16.1254 -0.162 0.25
-43.4511 -16.1423 -0.16 0.32
-42.4976 -15.9409 -0.152 0.24
-42.1555 -15.9639 -0.149 0.25
-41.6507 -15.9233 -0.146 0.18
-41.3019 -15.9381 -0.143 0.43
-40.9528 -15.8779 -0.14 0.25
-40.4847 -15.8435 -0.137 0.27
-39.3189 -15.5307 -0.127 0.17
-39.2459 -15.6442 -0.127 0.16
-39.239 -15.785 -0.128 0.18
-39.1117 -15.8767 -0.127 0.17
-38.4991 -15.7692 -0.122 0.3
-38.1332 -15.7594 -0.119 0.19
-37.7422 -15.6677 -0.116 0.27
-37.4968 -15.7042 -0.115 0.27
-37.2307 -15.7309 -0.113 0.3
-36.7754 -15.675 -0.109 0.28
-36.5774 -15.7271 -0.108 0.29
-36.208 -15.7032 -0.105 0.27
-36.0358 -15.7632 -0.104 0.31
-35.7625 -15.7107 -0.102 0.28
-35.5204 -15.7382 -0.1 0.3
-35.438 -15.8344 -0.1 0.26
-34.6571 -15.617 -0.094 0.3
-34.6368 -15.7394 -0.094 0.35
-34.2836 -15.7091 -0.091 0.27
-33.647 -15.5457 -0.086 0.32
-33.4291 -15.5091 -0.085 0.29
-33.4247 -15.635 -0.085 0.33
-32.9547 -15.5416 -0.081 0.21
-32.5221 -15.4634 -0.078 0.33
-32.261 -15.4633 -0.076 0.27
-32.1475 -15.5334 -0.076 0.37
-31.5922 -15.3889 -0.071 0.25
-31.3843 -15.4097 -0.07 0.33
-31.3399 -15.4492 -0.07 0.29
-31.2059 -15.5045 -0.069 0.34
-30.9834 -15.5158 -0.067 0.29
-30.634 -15.4625 -0.065 0.33
-30.4166 -15.4719 -0.063 0.28
-29.9701 -15.3643 -0.06 0.29
-29.8824 -15.4383 -0.059 0.39
-29.5639 -15.3331 -0.057 0.27
-29.2729 -15.2989 -0.054 0.36
-29.1087 -15.3302 -0.053 0.34
-29.0428 -15.412 -0.053 0.34
-28.4494 -15.2121 -0.048 0.26
-28.2785 -15.2352 -0.047 0.34
-28.2156 -15.317 -0.047 0.32
-27.9505 -15.2868 -0.045 0.29
-27.7984 -15.2604 -0.044 0.36
-27.4018 -15.1545 -0.041 0.31
-27.2419 -15.179 -0.04 0.39
-27.0211 -15.1673 -0.038 0.29
-26.7052 -15.1012 -0.036 0.29
-26.5327 -15.1132 -0.035 0.4
-26.4554 -15.1795 -0.035 0.3
-26.1808 -15.0769 -0.032 0.29
-26.0691 -15.122 -0.032 0.43
-25.8516 -15.1054 -0.03 0.28
-25.5008 -15.0081 -0.027 0.32
-25.4794 -15.1034 -0.028 0.32
-25.0964 -14.984 -0.024 0.34
-25.029 -15.0507 -0.024 0.32
-24.7538 -14.938 -0.022 0.31
-24.6962 -15.009 -0.022 0.42
-24.5633 -15.0344 -0.021 0.34
-24.2334 -14.9378 -0.018 0.36
-24.0124 -14.9061 -0.017 0.31
-23.954 -14.9741 -0.017 0.4
-23.8084 -14.988 -0.016 0.34
-23.7694 -15.0157 -0.016 0.36
-23.6112 -15.0192 -0.015 0.3
-23.4677 -15.0322 -0.014 0.3
-23.3124 -15.0368 -0.013 0.49
-22.9332 -14.8944 -0.01 0.24
-22.8348 -14.932 -0.009 0.47
-22.9095 -15.0847 -0.01 0.26
-22.7972 -15.0618 -0.009 0.44
-22.6196 -15.0476 -0.008 0.28
-22.4558 -15.0409 -0.007 0.22
-22.2988 -15.0374 -0.006 0.43
-22.1321 -15.0266 -0.005 0.23
-21.981 -15.0253 -0.004 0.26
-21.8418 -15.0304 -0.003 0.26
-21.6693 -15.0124 -0.002 0.32
-21.5581 -14.9865 -0.001 0.3
-21.3623 -14.9496 0 0.26
-21.0756 -14.8486 0.003 0.33
-20.9297 -14.8445 0.004 0.29
-20.777 -14.8341 0.005 0.31
-20.6447 -14.8385 0.006 0.3
-20.5857 -14.8945 0.006 0.32
-20.504 -14.8846 0.006 0.24
-20.2684 -14.8114 0.008 0.31
-20.1207 -14.8002 0.009 0.34
-19.9545 -14.7754 0.01 0.27
-19.8166 -14.7696 0.011 0.29
-19.6456 -14.7386 0.012 0.35
-19.5419 -14.757 0.013 0.27
-19.5178 -14.7882 0.013 0.42
-19.4483 -14.8308 0.013 0.38
-19.3046 -14.8177 0.014 0.29
-19.1815 -14.8195 0.015 0.39
-19.0574 -14.8201 0.016 0.28
-18.9207 -14.8093 0.017 0.3
-18.7859 -14.7996 0.017 0.27
-18.5837 -14.6875 0.019 0.35
-18.5445 -14.7512 0.019 0.32
-18.4322 -14.7573 0.02 0.3
-18.2596 -14.7132 0.021 0.31
-18.1932 -14.7539 0.021 0.37
-18.0654 -14.7455 0.022 0.29
-17.9435 -14.7402 0.023 0.3
-17.7711 -14.6922 0.024 0.25
-17.678 -14.6629 0.025 0.27
-17.5922 -14.6849 0.025 0.5
-17.4967 -14.6986 0.026 0.32
-17.1601 -14.5087 0.029 0.33
-17.2658 -14.6905 0.027 0.24
-17.0226 -14.577 0.029 0.42
-16.868 -14.5365 0.03 0.44
-16.9052 -14.6159 0.03 0.28
-16.8205 -14.6349 0.03 0.48
-16.7173 -14.6373 0.031 0.22
-16.6122 -14.6387 0.031 0.36
-16.5023 -14.6338 0.032 0.36
-16.3857 -14.6228 0.033 0.38
-16.2506 -14.594 0.034 0.35
-16.1365 -14.538 0.035 0.3
-16.082 -14.5801 0.035 0.38
-15.9877 -14.5868 0.035 0.35
-15.8857 -14.5853 0.036 0.38
-15.7817 -14.5827 0.037 0.29
-15.6817 -14.5812 0.037 0.34
-15.5807 -14.5786 0.038 0.34
-15.4671 -14.5647 0.038 0.39
-15.3939 -14.5411 0.039 0.32
-15.1622 -14.4129 0.041 0.23
-15.0613 -14.4084 0.042 0.48
-15.0854 -14.5223 0.041 0.3
-15.0088 -14.5387 0.041 0.3
-14.9253 -14.5497 0.042 0.47
-14.8071 -14.5246 0.042 0.35
-14.734 -14.499 0.043 0.33
-14.6341 -14.4926 0.044 0.34
-14.5344 -14.4841 0.044 0.31
-14.4424 -14.4829 0.045 0.33
-14.3494 -14.4806 0.045 0.29
-14.2584 -14.4794 0.046 0.38
-14.1654 -14.4762 0.046 0.36
-14.0933 -14.4487 0.047 0.32
-14.0062 -14.4496 0.047 0.37
-13.9134 -14.4444 0.048 0.36
-13.8254 -14.4433 0.048 0.27
-13.7441 -14.4495 0.049 0.44
-13.6532 -14.4443 0.049 0.36
-13.5566 -14.4329 0.05 0.26
-13.4943 -14.4117 0.05 0.38
-13.4111 -14.4138 0.051 0.34
-13.3252 -14.4118 0.051 0.33
-13.2266 -14.3964 0.052 0.25
-13.1436 -14.3965 0.052 0.37
-13.0538 -14.3883 0.053 0.32
-12.9766 -14.3936 0.053 0.37
-12.9086 -14.3643 0.054 0.34
-12.8256 -14.3624 0.054 0.37
-12.7397 -14.3564 0.055 0.27
-12.6664 -14.3648 0.055 0.41
-12.5719 -14.3495 0.056 0.3
-12.4919 -14.3477 0.056 0.32
-12.4128 -14.3479 0.056 0.34
-12.3376 -14.3523 0.057 0.44
-11.5986 -13.538 0.065 0.25
-11.4996 -13.5076 0.066 0.35
-11.4409 -13.5255 0.066 0.35
-11.391 -13.5528 0.066 0.41
-11.3497 -13.5894 0.066 0.45
-11.3208 -13.6424 0.066 0.4
-11.314 -13.7212 0.066 0.47
-11.7417 -14.2835 0.06 0.3
-11.6724 -14.2911 0.061 0.39
-11.5849 -14.275 0.061 0.3
-11.5079 -14.2723 0.061 0.36
-11.431 -14.2676 0.062 0.3
-11.356 -14.266 0.062 0.31
-11.2849 -14.2685 0.063 0.38
-11.2119 -14.268 0.063 0.39
-11.1567 -14.244 0.063 0.28
-11.0913 -14.2528 0.064 0.36
-11.0184 -14.2512 0.064 0.37
-10.9396 -14.2415 0.064 0.33
-10.8667 -14.2389 0.065 0.32
-10.7928 -14.2353 0.065 0.28
-10.7227 -14.2349 0.065 0.36
-10.6762 -14.2203 0.066 0.33
-10.5957 -14.2054 0.066 0.3
-10.5314 -14.2132 0.067 0.39
-10.4509 -14.1974 0.067 0.24
-10.293 -14.0758 0.068 0.27
-10.204 -14.0467 0.069 0.55
-10.2524 -14.2065 0.068 0.29
-10.2118 -14.197 0.068 0.48
-10.1294 -14.1771 0.069 0.27
-10.0709 -14.1891 0.069 0.35
-9.99151 -14.1713 0.069 0.4
-9.91973 -14.1638 0.07 0.29
-9.86224 -14.1768 0.07 0.36
-9.78667 -14.1632 0.07 0.31
-9.74891 -14.1559 0.07 0.36
-9.67719 -14.1463 0.071 0.32
-9.61502 -14.1502 0.071 0.33
-9.54521 -14.1437 0.071 0.34
-9.47828 -14.1404 0.072 0.32
-9.42279 -14.1535 0.072 0.43
-9.3464 -14.1348 0.072 0.29
-9.30677 -14.1234 0.073 0.36
-9.23706 -14.114 0.073 0.3
-9.17117 -14.1097 0.073 0.31
-9.11192 -14.1156 0.074 0.3
-9.0451 -14.1093 0.074 0.3
-8.99254 -14.1244 0.074 0.36
-8.91818 -14.1048 0.074 0.32
-8.85897 -14.1098 0.075 0.36
-8.81184 -14.0841 0.075 0.25
-8.7536 -14.0901 0.075 0.37
-8.69067 -14.0869 0.075 0.38
-8.62681 -14.0816 0.076 0.3
-8.56767 -14.0846 0.076 0.32
-8.50761 -14.0855 0.076 0.38
-8.44564 -14.0833 0.077 0.35
-8.40054 -14.0567 0.077 0.31
-8.34048 -14.0576 0.077 0.38
-8.27665 -14.0514 0.077 0.34
-8.2242 -14.0636 0.078 0.31
-8.16048 -14.0544 0.078 0.41
-8.09762 -14.0492 0.078 0.29
-8.03673 -14.045 0.078 0.32
-7.99735 -14.0266 0.079 0.36
-7.93931 -14.0266 0.079 0.34
-7.885 -14.0347 0.079 0.34
-7.84019 -14.0572 0.079 0.19
-7.59761 -13.7255 0.082 0.59
-7.5943 -13.8205 0.082 0.33
-7.56554 -13.8705 0.081 0.48
-7.58371 -14.0092 0.08 0.32
-7.55001 -14 0.081 0.27
-7.4949 -14.0021 0.081 0.33
-7.44355 -14.0113 0.081 0.37
-7.38086 -14.0011 0.081 0.3
-7.31918 -13.991 0.081 0.32
-7.26597 -13.9961 0.082 0.32
-7.2109 -13.9972 0.082 0.36
-7.17166 -13.9748 0.082 0.35
-7.1129 -13.9667 0.082 0.31
-7.06158 -13.975 0.083 0.39
-7.00183 -13.9669 0.083 0.29
-6.94965 -13.9711 0.083 0.34
-6.89554 -13.9732 0.083 0.34
-6.84058 -13.9712 0.083 0.33
-6.8023 -13.9499 0.084 0.34
-6.75205 -13.9561 0.084 0.27
-6.69147 -13.943 0.084 0.43
-6.6374 -13.9441 0.084 0.36
-6.58243 -13.9422 0.084 0.36
-6.52664 -13.9353 0.085 0.38
-6.47171 -13.9323 0.085 0.38
-6.4438 -13.9294 0.085 0.43
-6.38887 -13.9265 0.085 0.3
-6.3349 -13.9246 0.085 0.41
-6.28469 -13.9298 0.085 0.38
-6.16947 -13.7907 0.087 0.34
-6.11468 -13.7838 0.087 0.34
-6.07104 -13.8013 0.087 0.33
-6.04688 -13.8054 0.087 0.45
-5.99488 -13.8046 0.087 0.28
-5.94377 -13.8068 0.087 0.38
-5.89087 -13.803 0.088 0.31
-5.84359 -13.8104 0.088 0.34
-5.79623 -13.8197 0.088 0.27
-5.74977 -13.8321 0.088 0.5
-5.70062 -13.8354 0.088 0.36
-5.66727 -13.8162 0.088 0.26
-5.62453 -13.8367 0.088 0.31
-5.61226 -13.9304 0.088 0.43
-5.56401 -13.9367 0.088 0.31
-5.5139 -13.9389 0.088 0.35
-5.46293 -13.9371 0.088 0.31
-5.42383 -13.9678 0.088 0.42
-5.39055 -13.9466 0.088 0.29
-5.34048 -13.9479 0.088 0.33
-5.29781 -13.9664 0.088 0.38
-5.24591 -13.9626 0.088 0.35
-5.19683 -13.9639 0.089 0.39
-5.14955 -13.9712 0.089 0.38
-5.09947 -13.9725 0.089 0.36
-5.07538 -13.9746 0.089 0.34
-5.02538 -13.9739 0.089 0.38
-4.97995 -13.9853 0.089 0.33
-4.92816 -13.9785 0.089 0.34
-4.88459 -13.994 0.089 0.34
-4.83555 -13.9943 0.089 0.25
-4.76376 -13.9297 0.09 0.41
-4.74064 -13.9329 0.09 0.34
-4.68347 -13.9079 0.09 0.45
-4.6472 -13.9437 0.09 0.32
-4.61355 -13.9905 0.09 0.55
-4.56819 -14 0.09 0.39
-4.51733 -13.9952 0.09 0.33
-4.4729 -14.0066 0.09 0.24
-4.4239 -14.0059 0.09 0.41
-4.40084 -14.0071 0.09 0.38
-4.35273 -14.0094 0.09 0.43
-4.30376 -14.0077 0.09 0.35
-4.25575 -14.0071 0.091 0.37
-4.20685 -14.0033 0.091 0.37
-4.16329 -14.0188 0.091 0.36
-4.11442 -14.0141 0.091 0.33
-4.09215 -14.0214 0.091 0.35
-4.04322 -14.0186 0.091 0.45
-3.99528 -14.016 0.091 0.33
-3.94996 -14.0244 0.091 0.41
-3.90285 -14.0268 0.091 0.36
-3.86025 -14.0433 0.091 0.37
-3.81135 -14.0396 0.091 0.33
-3.78833 -14.0398 0.091 0.38
-3.74036 -14.0381 0.091 0.33
-3.69325 -14.0404 0.092 0.39
-3.64631 -14.0378 0.092 0.29
-3.60188 -14.0493 0.092 0.38
-3.55481 -14.0506 0.092 0.43
-3.5069 -14.0469 0.092 0.34
-3.48385 -14.0481 0.092 0.4
-3.44046 -14.0586 0.092 0.33
-3.39431 -14.062 0.092 0.35
-3.34637 -14.0594 0.092 0.41
-3.30033 -14.0597 0.092 0.38
-3.25501 -14.0682 0.092 0.38
-3.21069 -14.0766 0.092 0.37
-3.16547 -14.0821 0.092 0.37
-3.13894 -14.0681 0.092 0.39
-3.09201 -14.0655 0.092 0.35
-3.04768 -14.0739 0.092 0.38
-3.00247 -14.0794 0.092 0.28
-2.95811 -14.0888 0.092 0.46
-2.91375 -14.0983 0.092 0.36
-2.86689 -14.0936 0.093 0.41
-2.84307 -14.0878 0.093 0.39
-2.79693 -14.0912 0.093 0.36
-2.75189 -14.0916 0.093 0.35
-2.70577 -14.094 0.093 0.38
-2.66238 -14.1045 0.093 0.39
-2.61466 -14.0958 0.093 0.35
-2.5661 -14.0821 0.093 0.34
-2.52971 -14.0068 0.094 0.36
-2.48037 -13.9871 0.094 0.44
-2.44203 -14.0248 0.094 0.4
-2.39609 -14.0222 0.094 0.42
-2.33603 -13.937 0.095 0.36
-2.29858 -13.9777 0.094 0.47
-2.2576 -14.0053 0.094 0.24
-2.23224 -13.9864 0.094 0.52
-2.18311 -13.9607 0.095 0.26
-2.1413 -13.9832 0.094 0.52
-2.11089 -14.0802 0.094 0.3
-2.06506 -14.0746 0.094 0.46
-2.0272 -14.1274 0.093 0.39
-1.98215 -14.1278 0.094 0.35
-1.93722 -14.1252 0.094 0.36
-1.91423 -14.1244 0.094 0.36
-1.87156 -14.1429 0.094 0.35
-1.82734 -14.1484 0.094 0.41
-1.78054 -14.1418 0.094 0.38
-1.73406 -14.1261 0.094 0.26
-1.65712 -13.8653 0.096 0.53
-1.62475 -13.9612 0.095 0.21
-1.59102 -13.867 0.096 0.53
-1.5386 -13.7921 0.097 0.24
-1.49988 -13.8408 0.096 0.55
-1.46122 -13.8875 0.096 0.4
-1.44333 -14.142 0.094 0.41
-1.39767 -14.1314 0.094 0.29
-1.33489 -13.9521 0.095 0.48
-1.29373 -13.7555 0.097 0.27
-1.24993 -13.749 0.097 0.57
-1.21542 -13.8489 0.096 0.23
-1.1663 -13.7941 0.097 0.48
-1.13022 -13.8819 0.096 0.36
-1.08988 -13.9195 0.096 0.47
-1.06074 -14.1236 0.094 0.31
-1.03879 -14.1219 0.094 0.45
-0.999436 -14.1885 0.094 0.18
-0.928296 -13.8188 0.097 0.59
-0.904799 -14.1192 0.094 0.36
-0.858805 -14.0896 0.095 0.3
-0.811475 -14.0409 0.095 0.45
-0.76418 -13.9912 0.096 0.31
-0.735829 -13.8861 0.096 0.49
-0.693296 -13.9007 0.096 0.26
-0.65168 -13.9462 0.096 0.51
-0.61047 -14.0088 0.095 0.24
-0.570108 -14.1045 0.095 0.52
-0.530976 -14.2222 0.094 0.22
-0.484738 -14.1996 0.094 0.56
-0.463227 -14.2138 0.094 0.38
-0.419079 -14.2173 0.094 0.31
-0.374351 -14.2087 0.094 0.44
-0.324772 -14.0239 0.095 0.32
-0.285091 -14.2146 0.094 0.36
-0.2389 -14.162 0.094 0.23
-0.192931 -14.0743 0.095 0.54
-0.171303 -14.1206 0.095 0.31
-0.126172 -14.0089 0.096 0.45
-0.0813866 -13.9734 0.096 0.46
-0.0374864 -13.8838 0.097 0.21
0.0064614 -13.8242 0.097 0.49
0.0499397 -13.9518 0.096 0.38
0.0931546 -13.8712 0.097 0.5
0.138026 -13.9527 0.096 0.36
0.159279 -13.9309 0.096 0.32
0.203497 -13.9364 0.096 0.48
0.245922 -13.8619 0.097 0.31
0.289663 -13.8823 0.097 0.56
0.333789 -13.9138 0.096 0.32
0.376785 -13.8843 0.096 0.46
0.421421 -13.9018 0.096 0.34
0.444502 -13.961 0.096 0.46
0.496433 -14.1873 0.094 0.42
0.536776 -14.0818 0.095 0.34
0.582726 -14.1083 0.095 0.39
0.633527 -14.2736 0.093 0.4
0.67843 -14.27 0.093 0.46
0.723507 -14.2714 0.093 0.29
0.746982 -14.2846 0.093 0.42
0.79171 -14.2761 0.093 0.36
0.837206 -14.2895 0.093 0.38
0.882074 -14.2849 0.093 0.38
0.927116 -14.2853 0.093 0.38
0.972333 -14.2908 0.093 0.43
1.01745 -14.2932 0.093 0.33
1.04057 -14.2964 0.093 0.39
1.08575 -14.3008 0.093 0.45
1.13059 -14.2953 0.093 0.34
1.17584 -14.3017 0.093 0.42
1.22188 -14.3021 0.093 0.38
1.2654 -14.2875 0.093 0.34
1.31179 -14.2979 0.093 0.44
1.3568 -14.2974 0.093 0.37
1.35454 -14.0323 0.095 0.31
1.41413 -14.1913 0.094 0.38
1.45723 -14.1648 0.094 0.3
1.49805 -14.1303 0.094 0.52
1.53683 -14.0659 0.094 0.3
1.58077 -14.0634 0.094 0.53
1.63034 -14.1077 0.094 0.19
1.63777 -13.9764 0.095 0.52
1.69429 -14.0764 0.094 0.31
1.75203 -14.1825 0.093 0.46
1.7969 -14.1779 0.093 0.25
1.83084 -14.0897 0.094 0.52
1.87882 -14.117 0.094 0.39
1.92352 -14.1075 0.094 0.39
1.94671 -14.1127 0.094 0.41
1.98242 -14.0464 0.094 0.29
2.0275 -14.0478 0.094 0.48
2.08422 -14.1249 0.093 0.3
2.12263 -14.0785 0.094 0.41
2.17558 -14.1337 0.093 0.43
2.23856 -14.2466 0.092 0.4
2.24869 -14.1642 0.093 0.29
2.29491 -14.1695 0.093 0.6
2.34986 -14.2247 0.092 0.27
2.38962 -14.1882 0.093 0.47
2.44202 -14.2274 0.092 0.27
2.4968 -14.2776 0.092 0.55
2.55642 -14.3515 0.091 0.31
2.60104 -14.34 0.091 0.41
2.6166 -14.2984 0.091 0.35
2.63546 -14.1506 0.093 0.38
2.70975 -14.3011 0.091 0.37
2.76422 -14.3423 0.091 0.47
2.8076 -14.3237 0.091 0.39
2.84017 -14.2536 0.091 0.36
2.88956 -14.2638 0.091 0.4
2.90419 -14.2243 0.092 0.41
2.95728 -14.2545 0.091 0.39
3.02355 -14.3472 0.09 0.52
3.07788 -14.3843 0.09 0.17
3.10569 -14.2923 0.091 0.57
3.15504 -14.3016 0.091 0.32
3.19259 -14.2593 0.091 0.32
3.21198 -14.2416 0.091 0.49
3.25895 -14.2399 0.091 0.33
3.3119 -14.2661 0.091 0.54
3.36833 -14.3062 0.09 0.26
3.41178 -14.2896 0.09 0.51
3.45292 -14.2642 0.09 0.34
3.4974 -14.2486 0.09 0.43
3.50875 -14.2012 0.091 0.43
3.57778 -14.2868 0.09 0.3
3.60729 -14.2148 0.09 0.39
3.64967 -14.1963 0.09 0.45
3.69774 -14.1976 0.09 0.28
3.74343 -14.188 0.09 0.52
3.78343 -14.1586 0.09 0.37
3.82357 -14.1332 0.091 0.44
3.84759 -14.1333 0.09 0.3
3.88417 -14.092 0.091 0.49
3.92879 -14.0805 0.091 0.38
3.9826 -14.1026 0.09 0.36
4.03185 -14.1089 0.09 0.48
4.11175 -14.2192 0.089 0.31
4.13 -14.1975 0.089 0.45
4.18363 -14.2147 0.089 0.35
4.2714 -14.3497 0.088 0.47
4.3136 -14.3262 0.088 0.25
4.35015 -14.2839 0.088 0.54
4.4218 -14.3584 0.088 0.27
4.43018 -14.2261 0.089 0.46
4.47442 -14.2895 0.088 0.28
4.5099 -14.2453 0.088 0.58
4.60829 -14.3979 0.087 0.24
4.63597 -14.3309 0.087 0.57
4.7308 -14.4677 0.086 0.42
4.78077 -14.466 0.086 0.14
4.79954 -14.3733 0.087 0.54
4.8384 -14.3399 0.087 0.33
4.85894 -14.3262 0.087 0.58
4.89776 -14.2918 0.087 0.34
4.92992 -14.2386 0.087 0.56
5.00105 -14.2982 0.087 0.3
5.02662 -14.2282 0.087 0.39
5.04664 -14.1425 0.088 0.39
5.09778 -14.1457 0.087 0.39
5.13609 -14.1824 0.087 0.4
5.20824 -14.2429 0.086 0.42
5.29361 -14.338 0.085 0.41
5.31253 -14.2493 0.086 0.41
5.36033 -14.2426 0.086 0.29
5.39256 -14.1914 0.086 0.49
5.4436 -14.1917 0.086 0.36
5.49501 -14.2599 0.085 0.45
5.5514 -14.27 0.085 0.31
5.60682 -14.281 0.085 0.55
5.65009 -14.2595 0.085 0.32
5.67805 -14.2005 0.085 0.52
5.75306 -14.2569 0.085 0.27
5.81497 -14.2818 0.084 0.58
5.94604 -14.5393 0.082 0.25
5.91704 -14.3392 0.084 0.45
5.94489 -14.2772 0.084 0.34
5.97619 -14.2281 0.084 0.46
6.03144 -14.2342 0.084 0.32
6.0703 -14.2008 0.084 0.54
6.14731 -14.2571 0.084 0.29
6.17223 -14.2543 0.084 0.56
6.26545 -14.3451 0.083 0.32
6.3445 -14.4024 0.082 0.48
6.43338 -14.4833 0.081 0.39
6.52098 -14.5563 0.08 0.34
6.57712 -14.5593 0.08 0.35
6.63105 -14.5564 0.08 0.37
6.67636 -14.5359 0.08 0.33
6.68703 -14.4975 0.08 0.45
6.70415 -14.4148 0.081 0.34
6.73432 -14.3617 0.081 0.42
6.81202 -14.409 0.08 0.24
6.86167 -14.3983 0.08 0.55
6.95769 -14.483 0.079 0.22
6.99106 -14.4358 0.08 0.51
7.03522 -14.4683 0.079 0.48
7.12682 -14.5411 0.078 0.23
7.10738 -14.3857 0.079 0.48
7.24951 -14.5589 0.078 0.36
7.27109 -14.4891 0.078 0.39
7.33026 -14.493 0.078 0.34
7.38299 -14.4842 0.078 0.43
7.37124 -14.4055 0.078 0.32
7.37667 -14.3033 0.079 0.48
7.44122 -14.318 0.079 0.28
7.49612 -14.3141 0.079 0.6
7.61531 -14.432 0.077 0.21
7.64551 -14.3799 0.078 0.55
7.7967 -14.5548 0.076 0.31
7.74108 -14.3946 0.077 0.42
7.82053 -14.4349 0.077 0.32
7.84218 -14.3671 0.077 0.46
7.89052 -14.3474 0.077 0.35
7.9549 -14.3571 0.077 0.28
8.01611 -14.362 0.076 0.48
8.08366 -14.3766 0.076 0.35
8.12238 -14.3393 0.076 0.42
8.16737 -14.3667 0.076 0.29
8.21999 -14.3549 0.076 0.57
8.34286 -14.4636 0.074 0.32
8.36981 -14.4047 0.075 0.32
8.38191 -14.3212 0.075 0.48
8.51326 -14.4437 0.074 0.26
8.50725 -14.3288 0.075 0.54
8.5681 -14.3807 0.074 0.25
8.63765 -14.3953 0.074 0.52
8.69861 -14.3932 0.073 0.32
8.75854 -14.3901 0.073 0.46
8.87789 -14.484 0.072 0.31
8.91233 -14.4388 0.072 0.48
8.93273 -14.421 0.072 0.36
8.99793 -14.4258 0.072 0.37
9.05348 -14.4118 0.072 0.35
9.10806 -14.3989 0.072 0.39
9.16261 -14.385 0.072 0.45
9.30606 -14.5101 0.07 0.43
9.28333 -14.3748 0.071 0.32
9.32832 -14.3452 0.071 0.39
9.34872 -14.3275 0.071 0.47
9.39795 -14.3047 0.071 0.34
9.48305 -14.3348 0.07 0.47
9.60516 -14.4216 0.069 0.45
9.68708 -14.4467 0.069 0.26
9.84919 -14.5902 0.067 0.54
9.86032 -14.5077 0.068 0.34
9.90068 -14.5173 0.067 0.37
9.95826 -14.5043 0.067 0.46
10.0189 -14.4942 0.067 0.38
10.0365 -14.4235 0.067 0.45
10.1046 -14.4241 0.067 0.33
10.1505 -14.3925 0.067 0.45
10.2564 -14.4469 0.066 0.48
10.3746 -14.5648 0.065 0.2
10.3259 -14.4004 0.066 0.57
10.661 -14.7699 0.062 0.33
10.7436 -14.7871 0.062 0.28
10.8136 -14.7856 0.062 0.42
10.8983 -14.8047 0.061 0.18
10.8075 -14.5837 0.063 0.52
10.8709 -14.6215 0.062 0.39
10.9325 -14.6084 0.062 0.31
10.9426 -14.527 0.063 0.38
11.0241 -14.5391 0.062 0.29
11.0815 -14.5201 0.062 0.53
11.2133 -14.5986 0.061 0.34
11.2643 -14.5688 0.061 0.38
11.2584 -14.5149 0.061 0.46
11.3513 -14.5397 0.061 0.43
11.4265 -14.5421 0.06 0.29
11.4775 -14.5133 0.06 0.46
11.5798 -14.5477 0.059 0.28
11.6078 -14.4897 0.06 0.47
11.9726 -14.8502 0.056 0.36
12.0325 -14.8771 0.055 0.39
12.1096 -14.8764 0.055 0.35
12.1636 -14.8475 0.055 0.27
12.0734 -14.6426 0.056 0.45
12.1943 -14.6954 0.055 0.29
12.171 -14.5741 0.056 0.45
12.2439 -14.5676 0.056 0.38
12.2854 -14.5241 0.056 0.36
12.3745 -14.583 0.055 0.37
12.4379 -14.5658 0.055 0.44
12.544 -14.5961 0.054 0.33
12.6053 -14.575 0.054 0.48
12.9648 -14.8966 0.05 0.32
13.0343 -14.8822 0.05 0.27
12.9309 -14.6707 0.052 0.39
12.9875 -14.6877 0.051 0.31
13.0373 -14.6509 0.051 0.57
13.1308 -14.6637 0.051 0.35
13.1992 -14.6473 0.051 0.4
13.5081 -14.8966 0.047 0.34
13.5598 -14.8588 0.047 0.23
13.5388 -14.7425 0.048 0.5
13.5537 -14.7119 0.048 0.32
13.5763 -14.6441 0.049 0.5
13.7352 -14.7236 0.047 0.34
13.8306 -14.7323 0.047 0.37
13.8781 -14.6906 0.047 0.46
14.0171 -14.7438 0.046 0.26
14.2786 -14.9258 0.043 0.44
14.3714 -14.9756 0.042 0.31
14.1697 -14.6724 0.045 0.29
14.3065 -14.7217 0.044 0.47
14.4028 -14.7273 0.044 0.25
14.4596 -14.6943 0.043 0.61
14.5984 -14.7425 0.042 0.32
14.6562 -14.7075 0.042 0.41
14.9926 -14.9989 0.039 0.29
14.8461 -14.7589 0.041 0.42
14.9609 -14.7789 0.04 0.2
15.0249 -14.7506 0.04 0.52
15.1304 -14.7609 0.039 0.32
15.1508 -14.6882 0.04 0.46
15.25 -14.6917 0.039 0.3
15.3989 -14.7416 0.038 0.46
15.4459 -14.7409 0.038 0.29
15.5605 -14.7569 0.037 0.42
15.6917 -14.7884 0.036 0.36
15.9387 -14.9278 0.034 0.36
15.8784 -14.7779 0.035 0.38
16.0105 -14.8073 0.034 0.33
16.0113 -14.7142 0.035 0.45
16.1068 -14.7559 0.034 0.46
16.274 -14.8151 0.032 0.24
16.3347 -14.7779 0.032 0.55
16.7322 -15.0422 0.029 0.25
16.895 -15.0936 0.027 0.45
16.8916 -14.9956 0.028 0.17
16.4628 -14.5213 0.033 0.21
16.4766 -14.4868 0.033 0.32
16.5342 -14.4458 0.033 0.54
16.5939 -14.4067 0.033 0.35
17.546 -15.1379 0.023 0.19
17.6797 -15.1572 0.022 0.34
17.7928 -15.1573 0.022 0.23
17.9173 -15.1679 0.021 0.43
18.0083 -15.1968 0.02 0.33
18.1223 -15.1948 0.02 0.25
18.2446 -15.2005 0.019 0.35
18.3277 -15.1726 0.018 0.32
18.4128 -15.1456 0.018 0.3
18.6029 -15.204 0.017 0.32
18.72 -15.2029 0.016 0.31
18.815 -15.2316 0.015 0.33
18.9361 -15.2314 0.014 0.36
19.0746 -15.2436 0.013 0.34
19.2049 -15.25 0.013 0.32
19.3279 -15.2488 0.012 0.32
19.4623 -15.2561 0.011 0.37
19.5842 -15.2528 0.01 0.29
19.7018 -15.2947 0.009 0.32
19.8175 -15.2847 0.009 0.27
19.9558 -15.2919 0.008 0.29
20.0931 -15.2971 0.007 0.32
20.2139 -15.2899 0.006 0.29
20.3583 -15.2978 0.005 0.32
20.4986 -15.3039 0.004 0.39
20.6429 -15.3109 0.003 0.25
20.751 -15.3401 0.003 0.26
20.8984 -15.349 0.002 0.32
21.0385 -15.3501 0.001 0.3
21.1745 -15.3474 0 0.27
21.3228 -15.3532 -0.001 0.3
21.4618 -15.3513 -0.002 0.3
21.6131 -15.3571 -0.003 0.3
21.7365 -15.3938 -0.004 0.36
21.899 -15.4061 -0.005 0.23
22.0523 -15.4108 -0.006 0.3
22.1891 -15.403 -0.007 0.3
22.3433 -15.4056 -0.008 0.23
22.5005 -15.4101 -0.009 0.3
22.6629 -15.4175 -0.01 0.29
22.8127 -15.4673 -0.011 0.31
22.9617 -15.4641 -0.012 0.27
23.1249 -15.4684 -0.013 0.3
23.3015 -15.4812 -0.015 0.32
23.4401 -15.4674 -0.015 0.31
23.6053 -15.4706 -0.017 0.29
23.7981 -15.4899 -0.018 0.25
23.875 -15.4862 -0.018 0.25
23.9152 -15.4058 -0.018 0.18
24.1059 -15.4221 -0.02 0.46
24.2709 -15.4203 -0.021 0.25
24.5393 -15.483 -0.023 0.21
24.8045 -15.5418 -0.025 0.34
24.9971 -15.5541 -0.026 0.27
25.1199 -15.5758 -0.027 0.29
25.3226 -15.5918 -0.028 0.3
25.5129 -15.5991 -0.03 0.29
25.7002 -15.6026 -0.031 0.28
25.9048 -15.6154 -0.033 0.29
26.094 -15.6188 -0.034 0.3
26.2841 -15.6202 -0.035 0.27
26.4794 -15.6244 -0.036 0.28
26.6552 -15.6723 -0.038 0.26
26.8371 -15.6659 -0.039 0.18
27.0526 -15.6784 -0.041 0.45
27.2487 -15.6776 -0.042 0.23
27.4734 -15.6928 -0.043 0.26
27.6776 -15.6946 -0.045 0.28
27.8848 -15.6964 -0.046 0.21
28.0818 -15.7496 -0.048 0.26
28.2817 -15.7456 -0.049 0.21
28.5082 -15.7537 -0.051 0.2
28.7428 -15.7665 -0.053 0.37
28.9487 -15.7613 -0.054 0.24
29.1882 -15.773 -0.056 0.2
29.4308 -15.7855 -0.057 0.38
29.6306 -15.8326 -0.059 0.19
29.8527 -15.8318 -0.06 0.32
30.1063 -15.845 -0.062 0.21
19.0213 -9.84817 0.037 0.37
19.0278 -9.7759 0.037 0.34
19.0709 -9.72236 0.037 0.52
19.1144 -9.70683 0.037 0.32
31.4927 -15.8876 -0.072 0.21
19.588 -9.71631 0.034 0.35
19.5935 -9.64307 0.034 0.41
19.6539 -9.59594 0.034 0.52
19.7204 -9.55159 0.033 0.14
19.6305 -9.47068 0.034 0.29
19.4385 -9.30227 0.036 0.39
19.3615 -9.18989 0.037 0.29
18.954 -8.92395 0.041 0.38
18.986 -8.8658 0.041 0.5
19.3648 -8.96964 0.038 0.24
19.2391 -8.83695 0.039 0.45
19.1206 -8.71001 0.04 0.21
19.1692 -8.6963 0.04 0.46
19.2936 -8.67895 0.039 0.38
19.287 -8.60413 0.039 0.37
36.5748 -16.2034 -0.109 0.19
36.9073 -16.2128 -0.112 0.29
37.1503 -16.1803 -0.114 0.21
37.5975 -16.2348 -0.117 0.18
37.9171 -16.3026 -0.119 0.1
38.2513 -16.304 -0.122 0
38.6485 -16.3311 -0.125 0.12
38.8283 -16.2638 -0.126 0.22
39.1339 -16.2471 -0.128 0
39.6841 -16.33 -0.132 0
40.1388 -16.3701 -0.136 0
40.5168 -16.45 -0.139 0.12
40.9337 -16.4705 -0.142 0.09
41.3323 -16.4806 -0.145 0.08
41.7765 -16.5061 -0.148 0
42.1708 -16.5083 -0.151 0.13
42.6381 -16.538 -0.155 0.22
43.0729 -16.5509 -0.158 0.11
43.5022 -16.6379 -0.161 0.14
43.9742 -16.6605 -0.165 0.1
44.3915 -16.6599 -0.168 0.09
44.9008 -16.6902 -0.172 0.14
24.6958 -8.99061 -0.001 0.39
24.7312 -8.91632 -0.001 0.34
24.7449 -8.87682 -0.001 0.28
24.6465 -8.75418 0 0.36
24.7549 -8.70537 -0.001 0.32
24.9088 -8.67198 -0.002 0
48.9221 -16.8869 -0.202 0
49.4933 -16.91 -0.206 0
50.0563 -16.9274 -0.211 0
50.6111 -17.0271 -0.215 0
51.1687 -17.0356 -0.219 0
51.8204 -17.0729 -0.224 0
52.3909 -17.078 -0.229 0
53.0838 -17.1198 -0.234 0
53.73 -17.1423 -0.239 0
53.9976 -17.0419 -0.241 0
55.0998 -17.1995 -0.249 0
55.7247 -17.2988 -0.254 0
56.4674 -17.3359 -0.26 0
57.1756 -17.3572 -0.265 0
57.9332 -17.3888 -0.271 0
58.6713 -17.41 -0.277 0
59.4306 -17.4325 -0.282 0
60.2554 -17.4698 -0.289 0
61.0776 -17.6041 -0.295 0
61.8909 -17.6288 -0.301 0
62.7142 -17.6501 -0.308 0
62.3197 -17.3286 -0.304 0
64.5299 -17.7257 -0.322 0
65.4981 -17.771 -0.329 0
66.4691 -17.8111 -0.337 0
67.3762 -17.9405 -0.344 0
68.2993 -17.9573 -0.351 0
68.8446 -17.8702 -0.355 0
70.2369 -17.9967 -0.366 0
71.3148 -18.0341 -0.374 0
72.328 -18.0498 -0.382 0.09
45.3469 -11.1552 -0.162 0.21
45.3856 -11.0888 -0.162 0.28
45.786 -11.0348 -0.165 0
45.8704 -10.9028 -0.166 0
50.3397 -11.6343 -0.201 0.25
50.0423 -11.3995 -0.199 0
50.1656 -11.2621 -0.199 0
52.6243 -11.2093 -0.218 0.11
52.4962 -11.0096 -0.217 0.15
52.4015 -10.8178 -0.216 0.21
52.4156 -10.6492 -0.216 0.26
52.6181 -10.5181 -0.217 0.2
52.6101 -10.4303 -0.217 0
76.3664 -13.2909 -0.405 0
78.7002 -13.1884 -0.423 0
75.2323 -11.2733 -0.394 0
75.4823 -11.0684 -0.396 0
75.7885 -10.8706 -0.398 0
74.6478 -10.4672 -0.388 0
74.6625 -10.2305 -0.388 0
74.6503 -10.1089 -0.388 0
75.397 -9.48746 -0.393 0.22
75.675 -9.28163 -0.395 0
72.3427 5.57012 -0.812 0
67.3467 6.14211 -0.742 0
67.0801 6.75618 -0.74 0
48.1341 7.68654 -0.478 0
56.663 12.6522 -0.608 0
56.3934 12.7779 -0.605 0
56.4653 12.9815 -0.607 0
59.0791 13.7792 -0.645 0
59.1313 13.8891 -0.646 0
59.3111 14.1285 -0.649 0
60.3272 14.5713 -0.664 0
46.7386 14.1228 -0.479 0.09
46.822 14.2277 -0.48 0.2
46.765 14.3708 -0.48 0.24
46.7277 14.5206 -0.48 0.27
46.7271 14.6817 -0.481 0.11
42.8561 13.6109 -0.425 0.13
42.0821 13.5109 -0.414 0
42.3442 13.7422 -0.418 0.04
26.8342 8.74483 -0.19 0
26.7894 8.82331 -0.19 0
26.2788 8.74644 -0.183 0
26.8017 9.01486 -0.191 0
26.8697 9.1323 -0.192 0
25.4179 8.72639 -0.171 0
25.1667 8.72862 -0.168 0
24.9932 8.71156 -0.165 0
25.1808 8.95525 -0.169 0.32
25.0868 9.01101 -0.168 0.24
24.1431 8.75592 -0.154 0.25
25.2179 9.32677 -0.171 0.35
25.2311 9.37727 -0.172 0.36
25.226 9.46614 -0.172 0.38
25.2358 9.55954 -0.173 0.32
25.2277 9.64731 -0.173 0.38
25.2324 9.74053 -0.174 0.29
25.254 9.84035 -0.174 0.49
25.0968 9.86988 -0.172 0.13
25.0084 9.8798 -0.171 0.12
25.1571 10.1221 -0.175 0.54
25.1924 10.2284 -0.176 0.22
25.0087 10.245 -0.173 0
35.3916 14.6411 -0.331 0
35.3625 14.7591 -0.332 0
35.3964 14.9044 -0.333 0
24.2423 10.2433 -0.163 0.08
36.6666 15.7803 -0.354 0.44
36.516 15.852 -0.352 0.21
36.191 15.8457 -0.348 0.18
35.9735 15.8851 -0.346 0.45
35.7955 15.941 -0.344 0.18
34.4759 15.4176 -0.324 0.28
34.3474 15.4891 -0.323 0.34
34.1154 15.5131 -0.32 0
34.0646 15.6194 -0.32 0
33.8406 15.6456 -0.317 0
33.6048 15.6653 -0.314 0
30.2838 14.2886 -0.264 0.22
30.3743 14.4478 -0.266 0.43
30.0327 14.4009 -0.261 0.19
29.6981 14.3552 -0.257 0.3
29.5466 14.3969 -0.255 0.3
29.397 14.4377 -0.254 0.26
29.5593 14.6335 -0.257 0.43
29.9389 14.8799 -0.263 0.21
29.6664 14.8614 -0.26 0.14
29.508 14.8979 -0.258 0.49
29.389 14.9538 -0.257 0.2
31.7894 16.3034 -0.295 0.17
31.8096 16.4402 -0.296 0.34
31.8249 16.5748 -0.297 0.41
30.5994 15.9966 -0.278 0.18
30.4979 16.0661 -0.278 0.45
30.4406 16.1582 -0.278 0.16
26.758 14.3076 -0.22 0.34
26.6001 14.3311 -0.218 0.25
26.4039 14.3322 -0.216 0.18
26.5377 14.513 -0.218 0.51
26.4574 14.5772 -0.218 0.22
26.0324 14.3963 -0.211 0.27
25.8835 14.4201 -0.21 0.26
25.7386 14.4451 -0.208 0.3
25.6103 14.4786 -0.207 0.39
25.3731 14.4503 -0.204 0.25
25.0802 14.3871 -0.2 0.33
25.0599 14.4814 -0.2 0.34
25.064 14.5356 -0.201 0.28
25.1368 14.6842 -0.203 0.36
24.5656 14.4531 -0.194 0.33
24.5385 14.5412 -0.194 0.34
24.4673 14.6028 -0.194 0.25
24.3422 14.6324 -0.193 0.34
24.3748 14.7567 -0.194 0.26
24.2643 14.7418 -0.192 0.25
24.3558 14.9021 -0.195 0.36
24.2601 14.9488 -0.194 0.29
24.0939 14.951 -0.192 0.38
24.1598 15.0974 -0.194 0.28
24.0818 15.1537 -0.193 0.23
24.2799 15.3847 -0.197 0.16
