ply
format ascii 1.0
element vertex 1587
property double x
property double y
property double z
property float intensity
end_header
-0.267648 -9.18484 -1.33493 0.46
-0.238931 -9.17405 -1.33296 0.38
-0.210821 -9.21429 -1.33899 0.34
-0.177793 -8.9953 -1.30404 0.43
-0.163154 -8.98189 -1.30206 0.28
-0.137106 -9.16624 -1.33106 0.46
-0.108363 -9.15645 -1.33009 0.31
-0.0796467 -9.14566 -1.32812 0.43
-0.0510006 -9.16888 -1.33115 0.41
-0.0220703 -9.23911 -1.34217 0.42
0.00712524 -9.2093 -1.3382 0.34
0.0207258 -9.1579 -1.33022 0.46
0.0496883 -9.15611 -1.32924 0.36
0.0792894 -9.21432 -1.33927 0.4
0.108963 -9.23851 -1.34229 0.35
0.137897 -9.23571 -1.34232 0.46
0.166257 -9.21193 -1.33835 0.3
0.195902 -9.23512 -1.34238 0.43
0.207864 -9.12375 -1.3244 0.42
0.236509 -9.14697 -1.32843 0.32
0.266973 -9.20015 -1.33745 0.43
0.296645 -9.22435 -1.34148 0.45
0.327727 -9.26351 -1.3475 0.35
0.354131 -9.20476 -1.33853 0.45
0.385897 -9.26891 -1.34856 0.29
0.401055 -9.2745 -1.34957 0.46
0.429525 -9.25471 -1.3466 0.45
0.456476 -9.21595 -1.34063 0.29
0.485765 -9.22615 -1.34266 0.46
0.514207 -9.20536 -1.33969 0.3
0.539557 -9.14464 -1.33072 0.43
0.565453 -9.10391 -1.32475 0.43
0.595934 -9.12108 -1.32778 0.32
0.608492 -9.10473 -1.32479 0.39
0.643829 -9.18979 -1.33882 0.33
0.669862 -9.15406 -1.33385 0.54
0.695841 -9.11634 -1.32787 0.35
0.729523 -9.17743 -1.3379 0.4
0.761058 -9.19657 -1.34093 0.35
0.791537 -9.21374 -1.34496 0.45
0.802768 -9.18542 -1.33997 0.41
0.832756 -9.1846 -1.341 0.39
0.859009 -9.15687 -1.33603 0.38
0.886669 -9.1441 -1.33506 0.32
0.914167 -9.12534 -1.33208 0.47
0.952776 -9.22032 -1.34811 0.3
0.973772 -9.14671 -1.33714 0.43
0.990066 -9.15727 -1.33915 0.38
1.02057 -9.17543 -1.34218 0.39
1.04823 -9.16267 -1.34121 0.37
1.07435 -9.12994 -1.33624 0.41
1.0814 -8.94867 -1.30726 0.32
1.12848 -9.09744 -1.33229 0.45
1.16638 -9.16642 -1.34332 0.35
1.17396 -9.1142 -1.33534 0.38
1.19788 -9.07452 -1.33036 0.34
1.23193 -9.1126 -1.33639 0.42
1.27335 -9.2005 -1.35142 0.36
1.29849 -9.1688 -1.34745 0.5
1.32374 -9.14109 -1.34348 0.4
1.34399 -9.07651 -1.33351 0.36
1.37067 -9.06477 -1.33253 0.32
1.38816 -9.0823 -1.33555 0.42
1.41341 -9.05459 -1.33157 0.25
1.43645 -9.01895 -1.3266 0.52
1.46787 -9.03409 -1.32963 0.36
1.4991 -9.04223 -1.33166 0.45
1.52336 -9.01456 -1.32869 0.28
1.53329 -8.90224 -1.31071 0.43
1.57446 -9.05417 -1.33573 0.41
1.60824 -9.08225 -1.34176 0.38
1.63942 -9.0884 -1.34279 0.43
1.67079 -9.10154 -1.34582 0.3
1.69506 -9.07486 -1.34285 0.44
1.70868 -8.98745 -1.32987 0.38
1.74581 -9.02845 -1.3369 0.33
1.75047 -8.9793 -1.32991 0.43
1.78982 -9.02824 -1.33794 0.42
1.82447 -9.0513 -1.34297 0.38
1.86033 -9.08232 -1.349 0.43
1.88009 -9.03676 -1.34203 0.36
1.90897 -9.03197 -1.34306 0.34
1.93446 -9.01326 -1.34108 0.48
1.94721 -9.0039 -1.3401 0.37
1.96357 -8.94343 -1.33112 0.38
1.96509 -8.81634 -1.31113 0.36
2.02032 -8.93387 -1.33117 0.35
2.05946 -8.97481 -1.33921 0.42
2.06456 -8.86863 -1.32322 0.34
2.11381 -8.95031 -1.33726 0.41
2.14168 -8.94554 -1.33729 0.38
2.14992 -8.9173 -1.3333 0.32
2.18112 -8.92445 -1.33633 0.37
2.21452 -8.93853 -1.33936 0.43
2.2434 -8.93374 -1.33939 0.38
2.27347 -8.93591 -1.34142 0.38
2.30013 -8.92318 -1.34045 0.39
2.32452 -8.9005 -1.33747 0.36
2.33058 -8.86632 -1.33248 0.37
2.35614 -8.84961 -1.33151 0.34
2.39294 -8.87861 -1.33754 0.4
2.4262 -8.8877 -1.34057 0.38
2.44296 -8.84222 -1.33359 0.37
2.47739 -8.85728 -1.33762 0.38
2.50513 -8.84751 -1.33765 0.37
2.51904 -8.84413 -1.33767 0.38
2.55235 -8.85522 -1.3407 0.37
2.57572 -8.83157 -1.33772 0.44
2.6057 -8.83074 -1.33975 0.38
2.65111 -8.88152 -1.34879 0.3
2.65473 -8.79438 -1.3358 0.51
2.67814 -8.77273 -1.33383 0.35
2.69092 -8.76438 -1.33284 0.36
2.71763 -8.75364 -1.33287 0.37
2.75641 -8.78158 -1.3389 0.4
2.78091 -8.7629 -1.33793 0.32
2.81414 -8.77099 -1.33996 0.4
2.83534 -8.7414 -1.33698 0.37
2.87955 -8.7852 -1.34602 0.38
2.89418 -8.73478 -1.33904 0.38
2.91352 -8.74725 -1.34206 0.4
2.95879 -8.79303 -1.3511 0.42
2.97025 -8.73669 -1.34311 0.34
3.01538 -8.77746 -1.35115 0.44
3.05075 -8.7905 -1.35519 0.4
3.07741 -8.77776 -1.35421 0.36
3.08808 -8.76546 -1.35322 0.38
3.11036 -8.73884 -1.35025 0.45
3.14035 -8.73802 -1.35228 0.31
3.15943 -8.70448 -1.3483 0.45
3.18501 -8.68877 -1.34733 0.35
3.19337 -8.62852 -1.33834 0.43
3.22652 -8.63361 -1.34137 0.35
3.25879 -8.67974 -1.3504 0.42
3.2887 -8.67592 -1.35143 0.42
3.31646 -8.66715 -1.35146 0.42
3.30765 -8.56435 -1.33546 0.38
3.34613 -8.5813 -1.34049 0.28
3.37176 -8.56759 -1.33952 0.54
3.39637 -8.55291 -1.33954 0.27
3.4177 -8.52831 -1.33657 0.51
3.45305 -8.57736 -1.3466 0.32
3.4636 -8.52405 -1.33861 0.43
3.50538 -8.55191 -1.34565 0.41
3.5342 -8.54512 -1.34668 0.45
3.55875 -8.52844 -1.3457 0.26
3.5737 -8.49001 -1.34072 0.48
3.61964 -8.52376 -1.34876 0.38
3.63458 -8.52135 -1.34978 0.45
3.67944 -8.55213 -1.35682 0.36
3.70393 -8.53345 -1.35484 0.44
3.73492 -8.5326 -1.35687 0.34
3.76904 -8.53666 -1.35991 0.48
3.80214 -8.53975 -1.36294 0.36
3.82985 -8.52899 -1.36297 0.45
3.83625 -8.50681 -1.35997 0.42
3.86188 -8.4931 -1.36 0.32
3.89916 -8.50307 -1.36404 0.36
3.91734 -8.47256 -1.36006 0.39
3.944 -8.45983 -1.36008 0.39
3.98766 -8.48364 -1.36712 0.32
4.02711 -8.49956 -1.37216 0.41
4.04943 -8.51095 -1.37518 0.37
4.07609 -8.49821 -1.37521 0.38
4.09745 -8.47462 -1.37323 0.35
4.12411 -8.46188 -1.37326 0.36
4.14228 -8.43137 -1.37028 0.48
4.18905 -8.45909 -1.37732 0.37
4.18506 -8.38617 -1.36632 0.4
4.21057 -8.40448 -1.37135 0.34
4.24882 -8.41343 -1.37538 0.42
4.28397 -8.41847 -1.37842 0.39
4.30849 -8.40079 -1.37744 0.4
4.34148 -8.39988 -1.38047 0.4
4.37549 -8.39995 -1.38251 0.4
4.39793 -8.37932 -1.38153 0.39
4.41508 -8.34784 -1.37855 0.4
4.43842 -8.3602 -1.38157 0.4
4.47455 -8.36421 -1.38461 0.36
4.49277 -8.3357 -1.38263 0.38
4.54049 -8.3614 -1.38967 0.38
4.56607 -8.34569 -1.3897 0.42
4.59692 -8.33984 -1.39073 0.33
4.6162 -8.3133 -1.38875 0.37
4.6174 -8.28426 -1.38475 0.36
4.6556 -8.29121 -1.38879 0.44
4.70221 -8.31294 -1.39583 0.36
4.73831 -8.31595 -1.39887 0.4
4.78064 -8.32779 -1.40391 0.27
4.79468 -8.29239 -1.39992 0.39
4.81604 -8.26879 -1.39895 0.34
4.83198 -8.26635 -1.39896 0.53
4.8628 -8.2595 -1.40099 0.36
4.87684 -8.2241 -1.39701 0.37
4.90871 -8.21923 -1.39904 0.34
4.94794 -8.22715 -1.40408 0.41
5.00179 -8.25768 -1.41213 0.37
5.03156 -8.24886 -1.41316 0.37
5.03174 -8.21885 -1.40916 0.34
5.04788 -8.18739 -1.40618 0.36
5.10276 -8.21889 -1.41523 0.33
5.10217 -8.16089 -1.40723 0.42
5.13816 -8.1599 -1.41027 0.36
5.16476 -8.14516 -1.4103 0.36
5.18196 -8.11568 -1.40832 0.25
5.15848 -8.02529 -1.3943 0.49
5.22553 -8.09948 -1.41036 0.34
5.23338 -8.05724 -1.40437 0.34
5.21511 -7.97471 -1.39236 0.29
5.20626 -7.90693 -1.38236 0.31
5.22559 -7.88239 -1.38138 0.34
5.24801 -7.86077 -1.3804 0.32
5.27153 -7.84311 -1.37943 0.38
5.28644 -7.8397 -1.38044 0.28
5.31826 -7.83282 -1.38247 0.36
5.34908 -7.82597 -1.38451 0.38
5.38715 -7.82793 -1.38854 0.34
5.41794 -7.82008 -1.38957 0.34
5.45082 -7.81518 -1.3926 0.35
5.47295 -7.81957 -1.39463 0.34
5.51104 -7.82252 -1.39866 0.31
5.54386 -7.81562 -1.40069 0.32
5.58192 -7.81757 -1.40473 0.32
5.61685 -7.81461 -1.40777 0.31
5.65178 -7.81165 -1.4108 0.33
5.68879 -7.81164 -1.41384 0.3
5.72888 -7.81454 -1.41787 0.33
5.75306 -7.82087 -1.4209 0.33
5.78588 -7.81397 -1.42393 0.31
5.82184 -7.81198 -1.42696 0.32
5.86709 -7.82074 -1.43201 0.32
5.90196 -7.81578 -1.43504 0.31
5.93995 -7.81474 -1.43808 0.31
5.97587 -7.81175 -1.44211 0.29
6.00627 -7.82592 -1.44614 0.29
6.03801 -7.81604 -1.44817 0.3
6.07078 -7.80714 -1.45021 0.32
6.10976 -7.80607 -1.45424 0.32
6.15498 -7.81383 -1.45929 0.29
6.1888 -7.8069 -1.46232 0.32
6.22773 -7.80383 -1.46536 0.32
6.25294 -7.81114 -1.46938 0.32
6.29397 -7.81201 -1.47342 0.3
6.33085 -7.80699 -1.47646 0.32
6.36877 -7.80395 -1.47949 0.28
6.40567 -7.79994 -1.48253 0.29
6.44149 -7.79295 -1.48557 0.29
6.48558 -7.79574 -1.49061 0.3
6.50763 -7.79713 -1.49263 0.32
6.55274 -7.8009 -1.49767 0.31
6.58753 -7.79294 -1.50071 0.3
6.62438 -7.78692 -1.50374 0.27
6.67052 -7.79166 -1.50879 0.35
6.67529 -7.74651 -1.5038 0.34
6.72248 -7.75321 -1.50984 0.32
6.73315 -7.74092 -1.50985 0.3
6.76064 -7.72215 -1.50988 0.32
6.79127 -7.70831 -1.51191 0.36
6.86631 -7.74526 -1.52398 0.32
6.88556 -7.71772 -1.523 0.3
6.91408 -7.69993 -1.52403 0.29
6.92509 -7.66361 -1.52105 0.05
6.91719 -7.63082 -1.51604 0
6.60133 -7.23734 -1.43578 0.05
6.46087 -7.03912 -1.39766 0.04
6.47718 -7.01367 -1.39568 0.14
6.52745 -7.02329 -1.40272 0.21
6.56022 -7.01439 -1.40576 0.25
6.60739 -7.02009 -1.4108 0.26
6.64529 -7.01605 -1.41484 0.27
6.66217 -7.01158 -1.41586 0.29
6.69904 -7.00657 -1.41989 0.29
6.74516 -7.0103 -1.42494 0.28
6.78819 -7.01112 -1.42998 0.27
6.84766 -7.02749 -1.43803 0.28
6.88864 -7.02637 -1.44307 0.28
6.9234 -7.01741 -1.44611 0.28
6.96698 -7.03822 -1.45315 0.28
7.00691 -7.03512 -1.45719 0.28
7.04267 -7.02614 -1.46022 0.28
7.08565 -7.02495 -1.46527 0.28
7.13066 -7.02472 -1.47031 0.27
7.17364 -7.02354 -1.47535 0.27
7.21248 -7.01747 -1.47839 0.27
7.24371 -7.02561 -1.48342 0.26
7.28766 -7.0234 -1.48746 0.27
7.33061 -7.02122 -1.4925 0.25
7.37146 -7.0151 -1.49654 0.27
7.4226 -7.0197 -1.50259 0.26
7.46244 -7.0136 -1.50763 0.23
7.49815 -7.00261 -1.50967 0.14
7.48314 -6.96601 -1.50466 0.21
7.49734 -6.93661 -1.50267 0.18
7.5351 -6.92757 -1.50671 0.27
7.61594 -6.95736 -1.51879 0.19
7.64138 -6.93665 -1.51981 0.14
7.74578 -6.9868 -1.53791 0.3
7.76198 -6.95735 -1.53593 0.23
7.81569 -6.98288 -1.54598 0.3
7.84319 -6.96412 -1.547 0.21
7.87373 -6.94727 -1.54904 0.26
7.84278 -6.8761 -1.53701 0.23
7.85795 -6.84567 -1.53603 0.19
7.93459 -6.86857 -1.5481 0.26
7.97538 -6.86045 -1.55214 0.23
7.97826 -6.81935 -1.54815 0.19
8.03397 -6.84483 -1.5572 0.28
8.01126 -6.78243 -1.54819 0.24
8.02337 -6.75009 -1.5462 0.26
8.059 -6.7361 -1.54924 0.25
8.10589 -6.73181 -1.55428 0.24
8.10677 -6.69077 -1.55029 0.29
8.17717 -6.70484 -1.56035 0.27
8.16636 -6.67513 -1.55635 0.31
8.21428 -6.67181 -1.56239 0.23
8.21102 -6.62588 -1.55739 0.3
8.22722 -6.59643 -1.55641 0.29
8.24647 -6.56889 -1.55543 0.28
8.24326 -6.52496 -1.55144 0.28
8.25333 -6.49067 -1.54845 0.29
8.24151 -6.46098 -1.54444 0.31
8.26998 -6.44119 -1.54647 0.28
8.28007 -6.4079 -1.54448 0.27
8.30853 -6.38811 -1.54551 0.26
8.3237 -6.35768 -1.54453 0.26
8.34504 -6.33309 -1.54555 0.25
8.37347 -6.3123 -1.54658 0.26
8.40865 -6.31834 -1.55162 0.29
8.43101 -6.29471 -1.55264 0.3
8.45434 -6.27006 -1.55266 0.28
8.51239 -6.27147 -1.56072 0.25
8.5123 -6.23146 -1.55672 0.33
8.49072 -6.17403 -1.54871 0
8.3804 -6.05401 -1.52361 0
7.65234 -5.5108 -1.37796 0.06
7.66459 -5.48346 -1.37698 0.15
7.73805 -5.49944 -1.38805 0.23
7.77476 -5.48843 -1.39208 0.22
7.81454 -5.48034 -1.39612 0.18
7.87265 -5.48374 -1.40418 0.26
7.93892 -5.49292 -1.41424 0.19
7.9955 -5.51338 -1.42329 0.25
8.0495 -5.51289 -1.43035 0.19
8.10047 -5.51149 -1.4374 0.25
8.14936 -5.50715 -1.44344 0.19
8.20539 -5.50761 -1.4505 0.25
8.26139 -5.50707 -1.45755 0.23
8.30925 -5.50175 -1.4636 0.19
8.3632 -5.49927 -1.47065 0.27
8.37184 -5.48603 -1.47066 0.2
8.36775 -5.44612 -1.46666 0.23
8.48381 -5.48395 -1.48577 0.22
8.53975 -5.48141 -1.49282 0.18
8.57027 -5.46357 -1.49586 0.26
8.60893 -5.4505 -1.49989 0.18
8.66179 -5.44505 -1.50595 0.23
8.71725 -5.46153 -1.515 0.2
8.70905 -5.41774 -1.50999 0.25
8.70596 -5.37781 -1.507 0.18
8.80462 -5.40111 -1.52209 0.32
8.8707 -5.40329 -1.53115 0.34
8.88795 -5.37581 -1.53117 0.24
8.89806 -5.34352 -1.53019 0.13
8.87109 -5.30824 -1.52316 0.2
8.82328 -5.24253 -1.51112 0.1
8.81716 -5.20169 -1.50712 0.17
8.73987 -5.11878 -1.49005 0.23
8.70835 -5.06362 -1.48103 0.16
8.71344 -5.03047 -1.47904 0.27
8.7856 -5.03549 -1.49011 0.21
8.70785 -4.9726 -1.47404 0.3
8.78509 -4.98048 -1.48511 0.3
8.80337 -4.95397 -1.48613 0.28
8.73534 -4.88081 -1.47107 0.29
8.76481 -4.86099 -1.4731 0.27
8.76479 -4.82398 -1.47011 0.26
8.7831 -4.79847 -1.47113 0.34
8.77347 -4.77572 -1.46812 0.24
8.76538 -4.73593 -1.46412 0.18
8.79993 -4.71897 -1.46715 0.5
8.82126 -4.69438 -1.46817 0.31
8.87506 -4.6869 -1.47523 0.33
8.89845 -4.66425 -1.47725 0.29
8.93705 -4.64918 -1.48129 0.31
9.0172 -4.65398 -1.49337 0.34
9.0157 -4.63601 -1.49137 0.34
9.0654 -4.62464 -1.49842 0.34
9.11513 -4.61427 -1.50447 0.19
9.15065 -4.59629 -1.5085 0.44
9.15777 -4.56408 -1.50651 0.28
9.15778 -4.52807 -1.50452 0.23
9.25209 -4.53848 -1.51861 0.34
9.31041 -4.54989 -1.52766 0.32
9.30229 -4.50909 -1.52366 0.25
9.33373 -4.48822 -1.52669 0.43
9.3834 -4.47585 -1.53274 0.27
9.43205 -4.46251 -1.53879 0.29
9.48475 -4.45106 -1.54584 0.28
9.47765 -4.41124 -1.54284 0.22
9.56835 -4.43576 -1.55692 0.39
9.57341 -4.4016 -1.55593 0.35
9.61798 -4.38537 -1.56098 0.26
9.66759 -4.371 -1.56703 0.3
9.73342 -4.36419 -1.57609 0.29
9.7638 -4.34135 -1.57912 0
9.76076 -4.30342 -1.57612 0
9.02929 -3.96438 -1.44745 0.04
9.04355 -3.93698 -1.44846 0.14
9.1094 -3.93117 -1.45753 0.17
9.16821 -3.92355 -1.46559 0.24
9.26035 -3.92802 -1.47967 0.23
9.36768 -3.93908 -1.49578 0.24
9.43451 -3.93224 -1.50484 0.21
9.52001 -3.9499 -1.51892 0.28
9.58279 -3.94117 -1.52799 0.24
9.65767 -3.93611 -1.53806 0.16
9.73457 -3.932 -1.54913 0.3
9.74874 -3.9016 -1.55015 0.23
9.6982 -3.84596 -1.53911 0.27
9.78724 -3.84652 -1.55219 0.21
9.96316 -3.8787 -1.58036 0.25
10.0264 -3.88596 -1.59042 0.23
10.0719 -3.86671 -1.59647 0.27
10.0769 -3.83255 -1.59447 0.22
10.178 -3.83378 -1.60957 0.34
10.2154 -3.81174 -1.61461 0.32
10.2184 -3.77665 -1.61262 0.27
10.1689 -3.72199 -1.60257 0.29
10.1967 -3.71422 -1.6066 0.27
10.1876 -3.67445 -1.6026 0.32
10.1644 -3.63007 -1.59658 0.26
10.2482 -3.62377 -1.60866 0.29
10.2896 -3.60162 -1.6137 0.33
10.3381 -3.58228 -1.62075 0.23
10.3684 -3.55644 -1.62378 0.29
10.372 -3.53934 -1.62379 0.3
10.377 -3.50519 -1.6228 0.31
10.3699 -3.46636 -1.61879 0.29
10.3821 -3.43402 -1.61981 0.32
10.3821 -3.39801 -1.61781 0.29
10.3791 -3.36107 -1.61581 0.29
10.3952 -3.33062 -1.61683 0.29
10.3877 -3.30982 -1.61383 0.29
10.3957 -3.27658 -1.61384 0.32
10.3897 -3.23874 -1.61084 0.31
10.3958 -3.20556 -1.61085 0.3
10.4019 -3.17138 -1.60985 0.3
10.3857 -3.1308 -1.60584 0.31
10.412 -3.10307 -1.60787 0.29
10.3923 -3.0796 -1.60385 0.28
10.4135 -3.05001 -1.60588 0.25
10.3964 -3.01046 -1.60186 0.21
10.3985 -2.97539 -1.60087 0.27
10.4096 -2.94308 -1.60088 0.22
10.4137 -2.90895 -1.59989 0.12
10.3955 -2.86843 -1.59588 0.2
10.4132 -2.85594 -1.5979 0.11
10.4153 -2.82187 -1.5969 0.18
10.4062 -2.78411 -1.5939 0.21
10.3982 -2.74731 -1.59089 0
10.3489 -2.69965 -1.58085 0
9.46957 -2.43971 -1.43502 0.02
9.52005 -2.42031 -1.44207 0.14
9.62897 -2.41632 -1.45818 0.2
9.7997 -2.44164 -1.48634 0.18
9.93777 -2.44285 -1.50748 0.24
10.0627 -2.44041 -1.5266 0.2
10.1665 -2.43156 -1.5427 0.12
10.2451 -2.41639 -1.55378 0.18
10.2814 -2.39039 -1.55881 0.21
10.3701 -2.37695 -1.5719 0.25
10.3676 -2.35901 -1.5709 0.29
10.3636 -2.3241 -1.5699 0.25
10.4089 -2.29985 -1.57595 0.29
10.3949 -2.26322 -1.57194 0.26
10.3487 -2.21847 -1.5639 0.34
10.379 -2.19163 -1.56693 0.29
10.4012 -2.16201 -1.56995 0.2
10.3826 -2.14151 -1.56594 0.24
10.275 -2.08545 -1.54784 0.24
10.3687 -2.07087 -1.56193 0.23
10.3446 -2.03252 -1.55691 0.32
10.3175 -1.99324 -1.55189 0.27
10.3649 -1.96893 -1.55794 0.26
10.3378 -1.92966 -1.55291 0.27
10.3665 -1.91787 -1.55694 0.33
10.3645 -1.88391 -1.55594 0.32
10.1957 -1.82052 -1.52779 0.25
10.1044 -1.77202 -1.5117 0.28
10.1678 -1.75026 -1.52077 0.42
10.2965 -1.73872 -1.54089 0.28
10.2825 -1.7031 -1.53788 0.33
10.2539 -1.68187 -1.53286 0.29
10.2862 -1.65398 -1.53689 0.32
10.229 -1.61253 -1.52684 0.29
10.2321 -1.57943 -1.52685 0.24
10.2835 -1.55501 -1.5339 0.42
10.2394 -1.51521 -1.52686 0.31
10.141 -1.46789 -1.50977 0.25
10.1381 -1.43496 -1.50877 0.25
10.1518 -1.42158 -1.51078 0.27
10.1599 -1.38935 -1.5108 0.24
10.1921 -1.36145 -1.51583 0.3
10.3278 -1.34672 -1.53696 0.29
10.4945 -1.33413 -1.56312 0.29
10.6752 -1.32316 -1.5913 0.25
10.8549 -1.31122 -1.61948 0.3
10.9106 -1.29969 -1.62853 0.29
10.9187 -1.26645 -1.62854 0.27
10.9248 -1.23228 -1.62955 0.27
10.9107 -1.19565 -1.62654 0.3
10.9158 -1.16249 -1.62655 0.29
10.9139 -1.12753 -1.62555 0.21
10.8938 -1.09007 -1.62154 0.28
10.8503 -1.06926 -1.6145 0.25
10.7982 -1.02968 -1.60545 0.21
10.7982 -0.995661 -1.60545 0.28
10.7873 -0.960949 -1.60344 0.25
10.7863 -0.925962 -1.60245 0.19
10.7954 -0.8927 -1.60346 0.26
10.7935 -0.85874 -1.60246 0.22
10.797 -0.841637 -1.60347 0.21
10.8121 -0.809209 -1.60448 0.25
10.8202 -0.774975 -1.6055 0.2
10.8223 -0.741905 -1.6055 0.12
10.8283 -0.707725 -1.60651 0.21
10.8354 -0.674518 -1.60752 0.11
10.8315 -0.639614 -1.60652 0.19
10.838 -0.623427 -1.60753 0.11
10.8321 -0.588578 -1.60552 0.2
10.8521 -0.555013 -1.60855 0.11
10.8552 -0.521916 -1.60855 0.17
10.8513 -0.487012 -1.60855 0.22
10.8523 -0.45297 -1.60856 0.19
10.8564 -0.418845 -1.60857 0.23
10.8449 -0.402153 -1.60656 0.18
10.852 -0.367947 -1.60757 0.24
10.8551 -0.333849 -1.60757 0.18
10.8481 -0.300027 -1.60657 0.24
10.8512 -0.26593 -1.60658 0.19
10.8402 -0.231218 -1.60457 0.25
10.8333 -0.197395 -1.60356 0.23
10.8294 -0.163491 -1.60356 0.19
10.8439 -0.146085 -1.60558 0.27
10.836 -0.11229 -1.60358 0.25
10.834 -0.0783305 -1.60358 0.19
10.8431 -0.0440686 -1.60459 0.28
10.8292 -0.0104385 -1.60258 0.25
10.8312 0.023631 -1.60358 0.27
10.8343 0.057728 -1.60359 0.2
10.8348 0.0747491 -1.60359 0.28
10.8329 0.108709 -1.60359 0.23
10.8559 0.143355 -1.60762 0.24
10.824 0.176491 -1.60259 0.18
10.8431 0.211027 -1.60561 0.29
10.8342 0.244795 -1.60361 0.25
10.8312 0.278727 -1.60361 0.25
10.8178 0.295364 -1.6016 0.18
10.2644 0.300158 -1.61406 0.27
10.2495 0.331761 -1.61205 0.19
10.2676 0.364271 -1.61507 0.25
10.2508 0.395819 -1.61206 0.23
10.2343 0.411374 -1.61004 0.19
10.2475 0.443746 -1.61206 0.27
10.2376 0.475487 -1.61105 0.23
10.2207 0.507035 -1.60804 0.18
10.2408 0.5406 -1.61206 0.26
10.2309 0.57234 -1.61006 0.19
10.245 0.60474 -1.61307 0.25
10.2376 0.620542 -1.61207 0.2
10.2497 0.653886 -1.61408 0.12
10.2458 0.685792 -1.61408 0.19
10.2559 0.719082 -1.6161 0.11
10.245 0.750795 -1.61509 0.19
10.2591 0.784194 -1.61711 0.11
10.2463 0.814853 -1.6161 0.18
10.2668 0.832423 -1.61912 0.1
10.2579 0.864192 -1.61811 0.17
10.255 0.897124 -1.61811 0.05
10.2521 0.929057 -1.61811 0.17
10.2612 0.962319 -1.62012 0.21
10.2563 0.994197 -1.62012 0.1
10.2415 1.0248 -1.61811 0.16
10.25 1.04204 -1.62012 0.21
10.2421 1.07384 -1.61912 0.1
10.2432 1.10688 -1.62012 0.18
10.2314 1.13757 -1.61811 0.21
10.2245 1.16939 -1.61811 0.18
10.2286 1.20251 -1.61912 0.24
10.2087 1.23298 -1.6161 0.18
10.2188 1.26627 -1.61911 0.24
10.1994 1.28074 -1.6161 0.19
10.2065 1.31395 -1.61811 0.25
10.1927 1.34458 -1.6161 0.22
10.1908 1.37654 -1.6161 0.17
10.1959 1.40969 -1.61811 0.26
10.18 1.44027 -1.61609 0.23
10.1612 1.47076 -1.61408 0.18
10.1787 1.48925 -1.6171 0.27
10.1638 1.51985 -1.61509 0.23
10.148 1.54943 -1.61307 0.19
10.1661 1.58494 -1.61709 0.27
10.1512 1.61554 -1.61608 0.24
10.1384 1.6462 -1.61407 0.18
10.1514 1.68057 -1.61709 0.28
10.148 1.69649 -1.61709 0.22
10.1232 1.72482 -1.61407 0.17
10.1432 1.76138 -1.61809 0.29
10.1224 1.79082 -1.61607 0.23
10.1105 1.8215 -1.61506 0.16
10.1266 1.85696 -1.61808 0.28
10.1167 1.8877 -1.61808 0.24
10.1023 1.90131 -1.61606 0.16
10.1174 1.93673 -1.61908 0.29
10.0996 1.96626 -1.61707 0.24
10.0817 1.99578 -1.61505 0.18
10.0948 2.03115 -1.61907 0.28
10.0789 2.06173 -1.61706 0.25
10.0671 2.09141 -1.61605 0.16
10.0746 2.10962 -1.61806 0.29
10.0628 2.14031 -1.61705 0.25
10.0559 2.17213 -1.61705 0.26
10.051 2.20401 -1.61704 0.26
10.0501 2.237 -1.61805 0.26
10.0442 2.26885 -1.61904 0.26
10.0185 2.29615 -1.61502 0.17
10.0285 2.33144 -1.61803 0.29
10.0251 2.34635 -1.61803 0.25
10.0132 2.37704 -1.61802 0.26
10.0133 2.41005 -1.61903 0.25
9.98657 2.43733 -1.616 0.18
10.0006 2.47373 -1.61902 0.3
9.98475 2.5033 -1.61801 0.25
9.97093 2.53294 -1.617 0.27
9.95955 2.54663 -1.61599 0.16
9.96459 2.58178 -1.618 0.29
9.95277 2.61147 -1.61699 0.24
9.94489 2.64326 -1.61698 0.28
9.93801 2.67508 -1.61798 0.28
9.92619 2.70477 -1.61697 0.27
9.93123 2.73992 -1.61898 0.27
9.91488 2.75248 -1.61697 0.3
9.91 2.78436 -1.61796 0.27
9.90709 2.81729 -1.61896 0.28
9.89427 2.84695 -1.61796 0.27
9.88542 2.87772 -1.61795 0.26
9.8706 2.90732 -1.61694 0.27
9.8697 2.94031 -1.61894 0.27
9.86329 2.95514 -1.61794 0.28
9.85938 2.98804 -1.61894 0.27
9.84953 3.01878 -1.61893 0.28
9.84365 3.05063 -1.61993 0.25
9.82686 3.07918 -1.61891 0.19
9.8289 3.11425 -1.62092 0.3
9.81708 3.14394 -1.61991 0.25
9.81761 3.16096 -1.62091 0.25
9.78297 3.18402 -1.61688 0.18
9.80483 3.22563 -1.62291 0.29
9.78507 3.2531 -1.62089 0.22
9.78513 3.28711 -1.62289 0.23
9.75746 3.31136 -1.61987 0.18
9.7674 3.34965 -1.62288 0.29
9.74764 3.37712 -1.62187 0.24
9.75512 3.39633 -1.62387 0.23
9.71653 3.41728 -1.61884 0.17
9.72651 3.45457 -1.62285 0.29
9.71763 3.48633 -1.62285 0.24
9.69887 3.51383 -1.62183 0.17
9.69693 3.54779 -1.62283 0.29
9.68114 3.57637 -1.62182 0.25
9.68067 3.59336 -1.62282 0.25
9.64903 3.6165 -1.61979 0.16
9.66198 3.65487 -1.62381 0.29
9.64816 3.6845 -1.6238 0.25
9.63534 3.71416 -1.62279 0.26
9.62646 3.74593 -1.62378 0.25
9.61167 3.77453 -1.62277 0.17
9.62206 3.79682 -1.62579 0.29
9.58944 3.81894 -1.62276 0.25
9.57959 3.84968 -1.62275 0.27
9.56777 3.87936 -1.62274 0.27
9.55395 3.909 -1.62273 0.27
9.5431 3.93971 -1.62272 0.26
9.53226 3.97042 -1.62272 0.26
9.52487 3.98423 -1.62271 0.27
9.51205 4.01388 -1.6227 0.29
9.49229 4.04135 -1.62168 0.27
9.47553 4.0689 -1.62067 0.28
9.47557 4.10392 -1.62267 0.25
9.41924 4.11537 -1.61462 0.18
9.43904 4.15893 -1.62064 0.3
9.42669 4.1716 -1.61963 0.25
9.41881 4.20339 -1.62063 0.27
9.40008 4.22989 -1.61961 0.29
9.38232 4.25741 -1.6186 0.29
9.37541 4.29023 -1.62059 0.29
9.35865 4.31778 -1.61958 0.28
9.35174 4.35061 -1.62058 0.27
9.34189 4.38135 -1.62157 0.25
9.36017 4.40786 -1.62659 0.25
9.35032 4.4386 -1.62659 0.23
9.37007 4.48416 -1.63361 0.34
9.35525 4.51376 -1.6336 0.26
9.31677 4.53071 -1.62856 0.25
9.29307 4.55607 -1.62654 0.36
9.28222 4.58678 -1.62753 0.35
9.29161 4.60905 -1.63055 0.39
9.28076 4.63976 -1.63154 0.35
9.27088 4.6715 -1.63253 0.38
9.27186 4.70854 -1.63554 0.34
9.29455 4.75619 -1.64256 0.25
9.29848 4.79531 -1.64557 0.19
9.28563 4.82597 -1.64656 0.12
9.28513 4.84396 -1.64756 0.2
9.28708 4.88203 -1.65057 0.11
9.28903 4.92009 -1.65457 0.17
9.27422 4.9497 -1.65456 0.22
9.27517 4.98774 -1.65757 0.1
9.25838 5.01629 -1.65755 0.17
9.25144 5.05011 -1.65855 0.05
9.25389 5.07019 -1.66055 0.18
9.2519 5.10614 -1.66356 0.2
9.24102 5.13786 -1.66455 0.1
9.23506 5.17271 -1.66655 0.18
9.22516 5.20545 -1.66754 0.05
9.21625 5.23821 -1.66953 0.18
9.20437 5.2699 -1.67053 0.05
9.20974 5.29306 -1.67253 0.16
9.20378 5.3279 -1.67453 0.2
9.18993 5.35854 -1.67552 0.1
9.17805 5.39022 -1.67651 0.17
9.16323 5.41983 -1.6765 0.21
9.15824 5.4557 -1.6795 0.1
9.14045 5.48422 -1.67948 0.19
9.13252 5.51802 -1.68048 0.11
9.12311 5.53276 -1.68047 0.2
9.11815 5.56764 -1.68347 0.11
9.11019 5.60244 -1.68547 0.18
9.09437 5.63201 -1.68545 0.21
9.08543 5.66578 -1.68745 0.18
9.07453 5.69849 -1.68844 0.25
9.05574 5.72699 -1.68843 0.19
9.05913 5.74909 -1.69043 0.25
9.03448 5.77242 -1.68941 0.22
9.03438 5.81243 -1.69341 0.18
9.02542 5.8472 -1.69541 0.26
9.01254 5.87886 -1.6964 0.23
8.99278 5.90632 -1.69538 0.18
8.99365 5.94736 -1.69939 0.27
8.97935 5.95797 -1.69838 0.24
8.96548 5.9896 -1.69937 0.18
8.96929 6.03272 -1.70437 0.26
8.9387 6.05389 -1.70235 0.22
8.93957 6.09493 -1.70635 0.2
8.93061 6.1297 -1.70835 0.13
8.91084 6.15717 -1.70833 0.2
8.90774 6.19709 -1.71133 0.11
8.91311 6.22025 -1.71434 0.17
8.8992 6.25288 -1.71533 0.21
8.8961 6.29281 -1.71933 0.1
8.88125 6.32341 -1.72032 0.16
8.86243 6.35291 -1.7203 0.05
8.84267 6.38038 -1.72028 0.17
8.84546 6.42447 -1.72529 0.05
8.83705 6.43924 -1.72528 0.17
8.82903 6.47604 -1.72828 0.05
8.82004 6.5118 -1.73028 0.16
8.812 6.5496 -1.73327 0.19
8.79812 6.58123 -1.73426 0.18
8.79008 6.61902 -1.73726 0.18
8.77187 6.62652 -1.73524 0.04
8.75696 6.65912 -1.73623 0.16
8.73915 6.68865 -1.73721 0.05
8.73407 6.72752 -1.74021 0.16
8.71917 6.76012 -1.7422 0.05
8.70429 6.79173 -1.74319 0.16
8.68156 6.81811 -1.74317 0.05
8.66566 6.85069 -1.74416 0.16
8.66116 6.86857 -1.74516 0.05
8.65017 6.90428 -1.74815 0.16
8.63624 6.93791 -1.74914 0.19
8.61645 6.96638 -1.75012 0.09
8.60644 7.00312 -1.75212 0.16
8.58273 7.02847 -1.7521 0.05
8.56683 7.06105 -1.75308 0.17
8.56331 7.07996 -1.75508 0.2
8.55035 7.11462 -1.75707 0.1
8.5237 7.13789 -1.75605 0.18
8.51368 7.17463 -1.75804 0.11
8.48215 7.19377 -1.75602 0.2
8.47993 7.23773 -1.76102 0.11
8.46598 7.27236 -1.76301 0.18
8.43935 7.29463 -1.76198 0.11
8.44066 7.31968 -1.76499 0.18
8.42868 7.35536 -1.76698 0.22
8.40397 7.38069 -1.76696 0.18
8.38318 7.40913 -1.76794 0.25
8.37508 7.44893 -1.77094 0.22
8.36307 7.48561 -1.77393 0.23
8.33742 7.50891 -1.77291 0.23
8.31532 7.51231 -1.77089 0.33
8.28572 7.5335 -1.76886 0.34
8.26785 7.56502 -1.77084 0.25
8.26464 7.60895 -1.77485 0.31
8.24868 7.64352 -1.77683 0.23
8.24058 7.68332 -1.78083 0.18
8.23537 7.72719 -1.78483 0.26
8.2201 7.73677 -1.78482 0.2
8.21292 7.77959 -1.78881 0.25
8.19213 7.80803 -1.7888 0.23
8.16156 7.8282 -1.78777 0.19
8.15829 7.87413 -1.79277 0.27
8.12773 7.89429 -1.79174 0.23
8.10888 7.92479 -1.79273 0.18
8.11502 7.95597 -1.79674 0.27
8.08349 7.97511 -1.79571 0.24
8.05195 7.99425 -1.79368 0.18
8.05157 8.04426 -1.79968 0.27
8.01226 8.05518 -1.79665 0.23
8.00022 8.09286 -1.79964 0.19
7.98717 8.13052 -1.80263 0.27
7.97091 8.14008 -1.80161 0.23
7.94034 8.16024 -1.80059 0.18
7.92535 8.19585 -1.80358 0.27
7.89482 8.21501 -1.80155 0.25
7.87397 8.24545 -1.80353 0.18
7.8619 8.28414 -1.80652 0.28
7.83328 8.30636 -1.8055 0.25
7.81538 8.33888 -1.80748 0.18
7.8098 8.35973 -1.80948 0.27
7.78118 8.38195 -1.80945 0.25
7.7545 8.40623 -1.80943 0.2
7.7434 8.44594 -1.81242 0.28
7.72447 8.47943 -1.81441 0.23
7.68808 8.49344 -1.81237 0.16
7.68861 8.54647 -1.81938 0.28
7.6704 8.55397 -1.81836 0.24
7.64761 8.58236 -1.81934 0.16
7.64032 8.62917 -1.82434 0.28
7.60686 8.64526 -1.82231 0.24
7.59182 8.68286 -1.8253 0.16
7.57289 8.71635 -1.82729 0.28
7.54719 8.74166 -1.82826 0.24
7.53772 8.7584 -1.82926 0.19
7.52265 8.797 -1.83224 0.27
7.49406 8.81823 -1.83222 0.25
7.47121 8.84861 -1.8332 0.18
7.4552 8.88518 -1.83619 0.27
7.42947 8.91149 -1.83717 0.25
7.3989 8.93165 -1.83614 0.21
7.3848 8.97128 -1.84013 0.27
7.37917 8.99413 -1.84213 0.25
7.34475 9.00919 -1.84009 0.19
7.32868 9.04777 -1.84408 0.26
7.29908 9.06896 -1.84306 0.25
7.27432 9.09629 -1.84403 0.18
7.26406 9.14203 -1.84903 0.27
7.23638 9.16628 -1.85 0.23
7.22689 9.18402 -1.851 0.18
7.20599 9.21646 -1.85298 0.26
7.17928 9.24173 -1.85396 0.23
7.15352 9.26904 -1.85493 0.18
7.13939 9.30966 -1.85892 0.26
7.11363 9.33697 -1.8599 0.19
7.09754 9.37654 -1.86289 0.25
7.08801 9.39528 -1.86488 0.24
7.06611 9.42769 -1.86686 0.19
7.05385 9.47337 -1.87186 0.27
7.0252 9.49659 -1.87183 0.24
6.99075 9.51265 -1.8708 0.18
6.97754 9.55631 -1.87579 0.26
6.95369 9.58666 -1.87677 0.23
6.93262 9.58909 -1.87575 0.18
6.92419 9.64087 -1.88175 0.27
6.89743 9.66815 -1.88273 0.24
6.87647 9.70258 -1.88571 0.18
6.86126 9.74618 -1.8897 0.27
6.83161 9.76938 -1.89067 0.24
6.80102 9.79054 -1.89064 0.18
6.804 9.82764 -1.89565 0.28
6.76377 9.83554 -1.89261 0.25
6.738 9.86284 -1.89459 0.21
6.73143 9.91968 -1.90159 0.27
6.70079 9.94285 -1.90156 0.25
6.66925 9.96199 -1.90153 0.2
6.66262 10.0208 -1.90953 0.27
6.6368 10.0501 -1.91051 0.24
6.63206 10.077 -1.91351 0.17
6.62063 10.1287 -1.9205 0.27
6.60056 10.1672 -1.92349 0.25
6.57666 10.1995 -1.92647 0.18
6.56231 10.2482 -1.93146 0.27
6.53358 10.2744 -1.93243 0.25
6.52018 10.325 -1.93842 0.26
6.51255 10.3478 -1.94142 0.27
6.49051 10.3852 -1.9444 0.25
6.4608 10.4104 -1.94538 0.27
6.43015 10.4336 -1.94635 0.32
6.40331 10.4639 -1.94833 0.31
6.37074 10.484 -1.9483 0.28
6.33051 10.4919 -1.94626 0.35
6.29217 10.5038 -1.94422 0.25
6.24433 10.4615 -1.93417 0.35
6.21657 10.4887 -1.93515 0.28
6.17728 10.4987 -1.93311 0.3
6.13427 10.4985 -1.93007 0.46
6.09785 10.5135 -1.92903 0.32
6.0567 10.5184 -1.92599 0.3
6.01078 10.5151 -1.92195 0.27
5.99259 10.5216 -1.92093 0.35
5.95431 10.5316 -1.9189 0.36
5.90844 10.5263 -1.91485 0.32
5.86635 10.5291 -1.91181 0.29
5.82426 10.532 -1.90877 0.29
5.78603 10.5399 -1.90674 0.26
5.74396 10.5418 -1.90369 0.26
5.72008 10.5371 -1.90067 0.27
5.68471 10.5502 -1.89964 0.26
5.63598 10.5398 -1.89459 0.18
5.60159 10.5539 -1.89356 0.31
5.57285 10.5801 -1.89553 0.25
5.54604 10.6094 -1.89751 0.21
5.51444 10.6305 -1.89848 0.34
5.48096 10.6476 -1.89845 0.23
5.49316 10.7129 -1.90847 0.26
5.46159 10.7331 -1.90944 0.23
5.42717 10.7481 -1.90941 0.19
5.40315 10.7845 -1.91239 0.26
5.36301 10.7894 -1.91035 0.23
5.33044 10.8095 -1.91132 0.18
5.30168 10.8367 -1.9133 0.27
5.27783 10.8311 -1.91027 0.23
5.2434 10.8461 -1.91024 0.2
5.21842 10.8815 -1.91322 0.27
5.17355 10.8762 -1.90918 0.23
5.13912 10.8913 -1.90914 0.18
5.11128 10.9215 -1.91212 0.26
5.07213 10.9265 -1.91008 0.23
5.03482 10.9374 -1.90905 0.18
5.02141 10.9521 -1.91004 0.26
4.98412 10.9621 -1.909 0.23
4.94217 10.9599 -1.90596 0.2
4.91432 10.9901 -1.90794 0.26
4.88081 11.0082 -1.9089 0.2
4.84733 11.0253 -1.90887 0.25
4.81193 11.0394 -1.90884 0.18
4.79569 11.0479 -1.90883 0.24
4.75554 11.0528 -1.90779 0.18
4.72678 11.08 -1.90976 0.24
4.69141 11.0931 -1.90873 0.18
4.6607 11.1182 -1.9107 0.25
4.62247 11.1262 -1.90967 0.19
4.58993 11.1453 -1.91064 0.23
4.57083 11.1488 -1.90962 0.18
4.54202 11.178 -1.91259 0.23
4.50101 11.1779 -1.90955 0.18
4.47216 11.2081 -1.91253 0.24
4.4349 11.2171 -1.91149 0.18
4.40331 11.2382 -1.91347 0.23
4.36883 11.2553 -1.91343 0.19
4.33343 11.2693 -1.9134 0.25
4.31718 11.2778 -1.91439 0.19
4.28462 11.298 -1.91536 0.12
4.24358 11.2988 -1.91332 0.2
4.2129 11.323 -1.91529 0.11
4.17564 11.332 -1.91425 0.18
4.14022 11.347 -1.91422 0.12
4.10673 11.3641 -1.91519 0.18
4.09135 11.3777 -1.91618 0.23
4.04945 11.3735 -1.91314 0.2
4.0233 11.4148 -1.91811 0.24
3.98516 11.4198 -1.91708 0.18
3.94695 11.4267 -1.91604 0.23
3.9125 11.4428 -1.91701 0.18
3.88271 11.471 -1.91998 0.23
3.85994 11.4623 -1.91696 0.18
3.82912 11.4915 -1.91993 0.24
3.7882 11.4884 -1.91689 0.18
3.7583 11.5206 -1.92087 0.25
3.72295 11.5326 -1.92084 0.19
3.68472 11.5406 -1.9198 0.12
3.64571 11.5405 -1.91776 0.2
3.61575 11.5747 -1.92174 0.11
3.59487 11.5701 -1.92072 0.18
3.56408 11.5983 -1.92369 0.11
3.52771 11.6113 -1.92365 0.19
3.49323 11.6283 -1.92462 0.11
3.45508 11.6333 -1.92359 0.21
3.42518 11.6655 -1.92756 0.11
3.38795 11.6735 -1.92653 0.2
3.37151 11.689 -1.92851 0.11
3.33153 11.6879 -1.92647 0.19
3.29982 11.713 -1.92944 0.11
3.26348 11.7251 -1.92941 0.19
3.23167 11.7542 -1.93238 0.11
3.18982 11.748 -1.92934 0.19
3.15712 11.7732 -1.93231 0.11
3.13535 11.7645 -1.93029 0.18
3.10356 11.7927 -1.93326 0.11
3.06358 11.7916 -1.93122 0.18
3.03084 11.8177 -1.93419 0.11
2.99083 11.8176 -1.93215 0.18
2.95718 11.8407 -1.93512 0.1
2.91903 11.8456 -1.93409 0.18
2.88266 11.8586 -1.93505 0.11
2.86 11.846 -1.93203 0.19
2.82727 11.8721 -1.935 0.11
2.78729 11.871 -1.93296 0.19
2.75361 11.8951 -1.93593 0.11
2.71457 11.896 -1.9339 0.2
2.67911 11.9121 -1.93586 0.11
2.63833 11.9039 -1.93282 0.19
2.62189 11.9195 -1.93481 0.11
2.58466 11.9275 -1.93477 0.21
2.54912 11.9465 -1.93674 0.11
2.51008 11.9474 -1.9347 0.19
2.47465 11.9625 -1.93667 0.11
2.43381 11.9563 -1.93363 0.19
2.39746 11.9683 -1.9346 0.11
2.3602 11.9773 -1.93456 0.19
2.34288 11.9889 -1.93654 0.11
2.3012 11.9767 -1.9325 0.2
2.2666 11.9978 -1.93547 0.11
2.2284 12.0047 -1.93544 0.19
2.19289 12.0227 -1.9374 0.11
2.15299 12.0186 -1.93536 0.19
2.11664 12.0307 -1.93633 0.11
2.09676 12.0261 -1.93431 0.19
2.05942 12.0381 -1.93528 0.11
2.02221 12.0451 -1.93524 0.18
1.98487 12.057 -1.9362 0.11
1.9468 12.059 -1.93617 0.2
1.91118 12.081 -1.93814 0.11
1.87133 12.0749 -1.9361 0.2
1.85398 12.0875 -1.93808 0.11
1.81413 12.0814 -1.93604 0.18
1.77857 12.1014 -1.93801 0.11
1.73953 12.1023 -1.93797 0.18
1.7023 12.1103 -1.93794 0.12
1.6617 12.0952 -1.9349 0.19
1.62605 12.1182 -1.93786 0.11
1.58696 12.1211 -1.93683 0.2
1.56877 12.1276 -1.93781 0.11
1.52984 12.1246 -1.93677 0.19
1.4933 12.1436 -1.93874 0.11
1.45434 12.1415 -1.9377 0.18
1.41708 12.1505 -1.93866 0.12
1.37813 12.1484 -1.93763 0.2
1.34156 12.1684 -1.93959 0.11
1.32165 12.1649 -1.93857 0.2
1.28509 12.1849 -1.94154 0.11
1.24791 12.1908 -1.9415 0.2
1.20976 12.1958 -1.94247 0.11
1.17069 12.1977 -1.94143 0.19
1.13415 12.2167 -1.9444 0.11
1.09441 12.2066 -1.94236 0.2
1.07692 12.2242 -1.94434 0.11
1.03861 12.2351 -1.94631 0.18
1.0014 12.2421 -1.94627 0.23
0.962973 12.257 -1.94824 0.19
0.925546 12.272 -1.9502 0.23
0.88745 12.275 -1.95016 0.18
0.849133 12.2859 -1.95213 0.13
0.811065 12.2879 -1.95209 0.2
0.79338 12.3124 -1.95608 0.11
0.753562 12.3053 -1.95404 0.19
0.716162 12.3193 -1.956 0.11
0.676399 12.3102 -1.95396 0.19
0.638944 12.3262 -1.95593 0.11
0.599986 12.3241 -1.95589 0.18
0.560196 12.316 -1.95385 0.23
0.540452 12.3064 -1.95183 0.25
0.502748 12.3314 -1.9558 0.11
0.464569 12.3374 -1.95676 0.18
0.426252 12.3483 -1.95872 0.22
0.387377 12.3432 -1.95769 0.16
0.348784 12.3642 -1.96065 0.23
0.309993 12.3561 -1.95861 0.18
0.271427 12.3761 -1.96258 0.24
0.252296 12.3805 -1.96256 0.2
0.213311 12.3795 -1.96252 0.12
0.174603 12.3684 -1.96048 0.2
0.136147 12.3844 -1.96345 0.11
0.0964947 12.3713 -1.96041 0.19
0.058039 12.3872 -1.96337 0.11
0.0190263 12.3871 -1.96333 0.19
-0.000243291 12.3966 -1.96532 0.11
-0.039256 12.3965 -1.96528 0
-0.0597733 9.01474 -1.39393 0
-0.181454 8.7483 -1.34978 0
-0.209554 8.75153 -1.34976 0
-0.236212 8.73879 -1.34773 0
-0.264146 8.73602 -1.3477 0
-0.290749 8.72129 -1.34567 0
-0.317628 8.71655 -1.34465 0
-0.345507 8.71178 -1.34362 0
-0.372359 8.70604 -1.34359 0
-0.384801 8.68569 -1.33958 0
-0.412735 8.68292 -1.33955 0
-0.439145 8.66119 -1.33652 0
-0.466356 8.66844 -1.3375 0.02
-0.537183 8.9506 -1.38546 0.26
-0.566615 8.9658 -1.38843 0.25
-0.580388 8.95741 -1.38742 0.2
-0.601283 8.8448 -1.36839 0.06
-0.61993 8.72324 -1.34836 0.14
-0.644787 8.68154 -1.34133 0.19
-0.671639 8.6758 -1.3413 0.18
-0.69827 8.66207 -1.33927 0.09
-0.726536 8.67129 -1.34125 0.09
-0.739282 8.66194 -1.33923 0.08
-0.766134 8.6562 -1.33921 0.15
-0.7944 8.66543 -1.34118 0.16
-0.821335 8.66268 -1.34115 0.18
-0.849601 8.67191 -1.34313 0.18
-0.884662 8.74597 -1.3561 0.16
-0.92516 8.87191 -1.37807 0.23
-0.957032 8.90304 -1.38305 0.27
-0.971083 8.90466 -1.38403 0.21
-0.993775 8.85702 -1.37601 0.06
-0.996718 8.63786 -1.33998 0
-1.01955 8.59521 -1.33296 0
-1.04903 8.61241 -1.33593 0
-1.07963 8.63358 -1.3409 0.02
-1.10546 8.62686 -1.33988 0.07
-1.13353 8.62909 -1.34085 0.09
-1.14758 8.63071 -1.34184 0.09
-1.17565 8.63294 -1.34281 0.08
-1.20123 8.61723 -1.34078 0.08
-1.22808 8.61149 -1.33976 0.04
-1.25515 8.61374 -1.34073 0.07
-1.28073 8.59804 -1.3387 0.04
-1.3088 8.60027 -1.33968 0.07
-1.32396 8.60585 -1.34166 0.04
-1.3509 8.60311 -1.34164 0
-1.37783 8.60037 -1.34161 0
-1.40596 8.6046 -1.34358 0
-1.43395 8.60383 -1.34356 0
-1.45956 8.58912 -1.34253 0
-1.48649 8.58638 -1.3425 0
-1.50171 8.59396 -1.34449 0
-1.52853 8.58722 -1.34346 0
-1.55536 8.58048 -1.34344 0
-1.58459 8.58868 -1.34541 0
-1.61147 8.58394 -1.34538 0
-1.63949 8.58417 -1.34635 0
-1.66765 8.5894 -1.34833 0
-1.69783 8.59557 -1.3503 0
-1.70727 8.5753 -1.34729 0
-1.73529 8.57553 -1.34826 0.03
-1.76103 8.56582 -1.34724 0.04
-1.79355 8.58394 -1.35121 0
-1.81929 8.57423 -1.35118 0
-1.84836 8.57643 -1.35215 0
-1.87411 8.56672 -1.35113 0
-1.88818 8.56933 -1.35211 0
-1.91382 8.55562 -1.35109 0
-1.94181 8.55485 -1.35206 0
-1.97085 8.55605 -1.35303 0
-1.99665 8.54834 -1.35301 0
-2.02347 8.5416 -1.35298 0
-2.05252 8.5428 -1.35395 0
-2.06543 8.53945 -1.35394 0
-2.09453 8.54265 -1.35591 0
-2.12585 8.55379 -1.35888 0
-2.15035 8.53511 -1.35686 0
-2.17728 8.53237 -1.35783 0
-2.21074 8.54846 -1.3618 0
-2.23201 8.52186 -1.35777 0
-2.26214 8.52604 -1.35975 0
-2.27733 8.53262 -1.36173 0
-2.30962 8.54274 -1.3647 0
-2.33764 8.54297 -1.36567 0
-2.3688 8.54811 -1.36864 0
-2.39013 8.52352 -1.36562 0
-2.42026 8.52769 -1.36759 0
-2.45252 8.53681 -1.37056 0
-2.46649 8.53542 -1.37055 0
-2.49223 8.52571 -1.37052 0
-2.5278 8.54574 -1.37549 0
-2.54913 8.52115 -1.37247 0
-2.57923 8.52432 -1.37444 0
-2.61041 8.53047 -1.37641 0
-2.63499 8.51479 -1.37538 0
-2.66392 8.51199 -1.37636 0
-2.68344 8.53046 -1.38034 0
-2.71127 8.52369 -1.38031 0
-2.7359 8.51001 -1.37929 0
-2.76919 8.5201 -1.38325 0
-2.79485 8.50739 -1.38223 0
-2.82057 8.49668 -1.3822 0.02
-2.85281 8.50479 -1.38517 0.14
-2.86888 8.50735 -1.38616 0.24
-2.88808 8.47781 -1.38214 0
-2.92351 8.49285 -1.3871 0
-3.06664 8.82103 -1.447 0.06
-3.06615 8.73101 -1.43199 0.15
-3.05589 8.61325 -1.41299 0.1
-3.06315 8.55003 -1.40397 0.09
-3.08659 8.52938 -1.40195 0.17
-3.0962 8.51511 -1.39994 0.05
-3.12399 8.50734 -1.39991 0.07
-3.14752 8.48969 -1.39889 0.04
-3.18073 8.49678 -1.40185 0.07
-3.2075 8.48804 -1.40183 0.04
-3.24174 8.4961 -1.40579 0.07
-3.26853 8.48836 -1.40577 0.04
-3.28669 8.49387 -1.40775 0.07
-3.31777 8.49601 -1.40972 0.08
-3.35742 8.51893 -1.41569 0
-3.44542 8.66256 -1.44361 0
-3.4818 8.67557 -1.44758 0
-3.49983 8.64006 -1.44356 0
-3.48465 8.52544 -1.42456 0
-3.48672 8.45535 -1.41455 0
-3.59151 8.5185 -1.43046 0
-3.77303 8.53451 -1.44528 0
-3.81143 8.54846 -1.44925 0
-3.83815 8.53772 -1.45022 0
-3.89568 8.59216 -1.46217 0
-5.27061 11.5355 -2.00913 0.05
-5.30186 11.5076 -2.0071 0.18
-5.34376 11.5034 -2.00906 0.11
-5.36259 11.4969 -2.01004 0.2
-5.40449 11.4928 -2.012 0.11
-5.43682 11.4679 -2.01096 0.18
-5.48186 11.4686 -2.01392 0.11
-5.50678 11.4289 -2.00989 0.17
-5.55079 11.4287 -2.01285 0.21
-5.59053 11.4186 -2.01381 0.17
-5.60194 11.3973 -2.0118 0.13
-5.64171 11.3882 -2.01376 0.17
-5.67823 11.3702 -2.01372 0.21
-5.71591 11.3581 -2.01468 0.1
-5.75352 11.3431 -2.01464 0.18
-5.79323 11.332 -2.0166 0.21
-5.82983 11.317 -2.01657 0.1
-5.84544 11.3026 -2.01555 0.19
-5.88729 11.2964 -2.01851 0.11
-5.93127 11.2952 -2.02147 0.19
-5.97312 11.2891 -2.02343 0.11
-6.01072 11.274 -2.02439 0.17
-6.04516 11.2531 -2.02435 0.05
-6.08065 11.2341 -2.02432 0.18
-6.10897 11.2453 -2.02829 0.1
-6.14655 11.2293 -2.02825 0.18
-6.17679 11.2014 -2.02722 0.12
-6.20487 11.1676 -2.02419 0.2
-6.24675 11.1625 -2.02715 0.1
-6.27802 11.1356 -2.02512 0.18
-6.32193 11.1314 -2.02807 0.11
-6.34901 11.0976 -2.02604 0.18
-6.36886 11.0921 -2.02702 0.11
-6.39911 11.0643 -2.02499 0.2
-6.4409 11.0561 -2.02695 0.11
-6.47428 11.0332 -2.02692 0.19
-6.51608 11.025 -2.02887 0.11
-6.54635 10.9982 -2.02784 0.18
-6.58917 10.991 -2.0308 0.11
-6.62047 10.9651 -2.02977 0.19
-6.64552 10.9664 -2.03174 0.11
-6.68731 10.9583 -2.0347 0.18
-6.72594 10.9442 -2.03566 0.11
-6.76038 10.9233 -2.03563 0.2
-6.80212 10.9131 -2.03759 0.11
-6.83758 10.8931 -2.03855 0.19
-6.8731 10.8752 -2.03851 0.11
-6.89188 10.8666 -2.0395 0.18
-6.9305 10.8526 -2.04046 0.11
-6.96075 10.8247 -2.03942 0.19
-7.00457 10.8175 -2.04238 0.11
-7.03273 10.7867 -2.04035 0.21
-7.05776 10.751 -2.03832 0.26
-7.10264 10.7458 -2.04128 0.11
-7.11725 10.7314 -2.04026 0.2
-7.16209 10.7252 -2.04422 0.11
-7.19339 10.6993 -2.04319 0.2
-7.22156 10.6685 -2.04116 0.17
-7.2633 10.6584 -2.04411 0.27
-7.29565 10.6345 -2.04408 0.21
-7.3217 10.5997 -2.04105 0
-6.78205 9.75225 -1.87249 0
-6.50294 9.31876 -1.78572 0
-6.48449 9.23024 -1.77173 0
-6.47234 9.15254 -1.75973 0
-6.47474 9.09446 -1.75172 0
-6.45845 9.01187 -1.73973 0
-6.47023 8.96753 -1.73472 0
-6.50389 8.9546 -1.73568 0
-6.58108 9.03251 -1.75362 0
-6.56895 8.95581 -1.74262 0
-6.44714 8.67506 -1.69271 0.12
-6.47669 8.65824 -1.69268 0.28
-6.46468 8.58554 -1.68168 0
-6.48174 8.55106 -1.67866 0
-6.71086 8.40671 -1.68343 0
-6.74352 8.39381 -1.6854 0
-6.74508 8.34175 -1.67839 0
-6.78496 8.33665 -1.68235 0.12
-6.8694 8.38735 -1.69727 0.23
-6.90203 8.37344 -1.69924 0.36
-6.92947 8.35268 -1.69921 0.14
-6.92873 8.32569 -1.69621 0.3
-6.98718 8.34109 -1.70415 0.21
-7.02811 8.33796 -1.70811 0.32
-7.08968 8.35728 -1.71706 0.25
-7.21118 8.44597 -1.74195 0.12
-7.20553 8.38611 -1.73395 0.18
-7.19371 8.32041 -1.72395 0.2
-7.37405 8.47451 -1.76279 0
-7.25653 8.31268 -1.72989 0
-7.35418 8.37101 -1.7478 0
-7.36094 8.32581 -1.74279 0
-8.00483 8.23808 -1.80516 0
-8.05998 8.24256 -1.81211 0
-8.13879 8.27041 -1.82503 0
-8.22687 8.308 -1.83995 0
-8.25803 8.31315 -1.84392 0
-8.3214 8.32541 -1.85286 0
-8.35592 8.30745 -1.85483 0
-8.4254 8.32355 -1.86576 0
-8.45273 8.29879 -1.86573 0.02
-9.56073 9.32971 -2.11976 0.07
-9.59605 9.30473 -2.12072 0.09
-9.63757 9.28658 -2.12368 0.17
-9.65524 9.27409 -2.12466 0.23
-9.68748 9.2462 -2.12563 0.19
-9.7249 9.22416 -2.12759 0.24
-9.74687 9.18654 -2.12557 0.21
-9.77198 9.15384 -2.12454 0.17
-9.8042 9.12494 -2.1255 0.26
-9.81903 9.08252 -2.12249 0.19
-9.82951 9.06322 -2.12147 0.13
-9.84329 9.01883 -2.11846 0.21
-9.85091 8.9686 -2.11344 0
-9.19464 8.3184 -1.95802 0
-9.17263 8.24598 -1.94703 0
-9.18549 8.20461 -1.94401 0
-9.22915 8.19141 -1.94797 0.09
-9.25615 8.19066 -1.95194 0
-9.35206 8.22204 -1.96685 0.1
-9.33832 8.15939 -1.95886 0.2
-9.31223 8.08408 -1.94688 0.07
-9.45735 8.15812 -1.97375 0.14
-9.49484 8.13908 -1.97571 0.24
-9.51798 8.10743 -1.97568 0
-9.56364 8.09417 -1.97964 0.03
-10.07 8.4964 -2.08819 0.14
-10.1299 8.49275 -2.09613 0.12
-10.155 8.46005 -2.0951 0.2
-10.1862 8.43118 -2.09607 0.11
-10.1939 8.38395 -2.09205 0.19
-10.2354 8.36481 -2.09601 0.11
-10.2483 8.32144 -2.093 0.2
-10.2618 8.30506 -2.09298 0.11
-10.2675 8.25689 -2.08797 0.19
-10.2997 8.22899 -2.08994 0.11
-10.3034 8.17987 -2.08493 0.19
-10.3336 8.15103 -2.0859 0.11
-10.3362 8.09994 -2.08089 0.19
-10.3705 8.07499 -2.08285 0.11
-10.3698 8.048 -2.07985 0.19
-10.3949 8.01529 -2.07982 0.11
-10.4036 7.97004 -2.07681 0.18
-10.4308 7.93828 -2.07678 0.11
-10.4385 7.89305 -2.07277 0.18
-10.4739 7.86807 -2.07573 0.11
-10.4918 7.83056 -2.07371 0.18
-10.5118 7.794 -2.07269 0.11
-10.5285 7.78053 -2.07367 0.18
-10.5566 7.74975 -2.07464 0.1
-10.5746 7.71224 -2.07362 0.18
-10.5885 7.67184 -2.0716 0.05
-10.5952 7.62564 -2.06759 0.17
-10.6285 7.59972 -2.06956 0.2
-10.6414 7.55835 -2.06754 0.1
-10.6499 7.53911 -2.06653 0.16
-10.6627 7.49774 -2.06451 0.05
-10.6797 7.45926 -2.06249 0.16
-10.7028 7.42561 -2.06247 0.05
-10.7116 7.38235 -2.05945 0.16
-10.7234 7.34001 -2.05744 0.05
-10.7373 7.30061 -2.05542 0.17
-10.7367 7.27562 -2.05342 0.05
-10.7373 7.22759 -2.04941 0.16
-10.7523 7.18816 -2.0474 0.18
-10.7611 7.1449 -2.04438 0.09
-10.7546 7.09206 -2.03838 0.19
-10.7553 7.04403 -2.03438 0.26
-10.7723 7.00655 -2.03336 0.27
-10.7994 6.97579 -2.03433 0.22
-10.813 6.96141 -2.03532 0.06
-10.8331 6.92584 -2.03429 0.18
-10.848 6.88742 -2.03327 0.18
-10.8548 6.84422 -2.03026 0.17
-10.8728 6.80771 -2.02924 0.17
-10.8796 6.7645 -2.02623 0.17
-10.9007 6.72991 -2.02621 0.16
-10.8939 6.70209 -2.02321 0.17
-10.912 6.66658 -2.02219 0.17
-10.9279 6.62913 -2.02117 0.17
-10.9327 6.58498 -2.01816 0.17
-10.9487 6.54752 -2.01714 0.17
-10.9586 6.50724 -2.01513 0.17
-10.9695 6.46692 -2.01312 0.17
-10.9739 6.44679 -2.01211 0.16
-10.996 6.41317 -2.01308 0.17
-11.011 6.37575 -2.01207 0.17
-11.0219 6.33543 -2.01005 0.16
-11.0287 6.29323 -2.00704 0.16
-11.0417 6.25486 -2.00602 0.17
-11.0577 6.21741 -2.00501 0.16
-11.0645 6.1762 -2.00299 0.16
-11.0679 6.1551 -2.00199 0.16
-11.0768 6.11484 -1.99998 0.18
-11.0867 6.07455 -1.99796 0.17
-11.0936 6.03335 -1.99595 0.17
-11.1055 5.99501 -1.99394 0.16
-11.1033 5.94905 -1.98993 0.04
-11.1081 5.9059 -1.98793 0.16
-11.1136 5.88675 -1.98692 0.19
-11.1204 5.84554 -1.98491 0.09
-11.1334 5.80817 -1.98389 0.16
-11.1352 5.76411 -1.98089 0.05
-11.138 5.72101 -1.97788 0.17
-11.1561 5.6865 -1.97786 0.2
-11.167 5.64719 -1.97584 0.1
-11.1613 5.62333 -1.97385 0.17
-11.1611 5.57932 -1.96984 0.05
-11.17 5.53906 -1.96883 0.16
-11.185 5.50364 -1.96781 0.05
-11.1869 5.46057 -1.96481 0.17
-11.1897 5.41848 -1.9628 0.05
-11.2067 5.383 -1.96278 0.16
-11.2055 5.33901 -1.95878 0.05
-11.1978 5.31422 -1.95578 0.17
-11.2108 5.27685 -1.95576 0.05
-11.2258 5.24142 -1.95475 0.16
-11.2297 5.2003 -1.95274 0.05
-11.2336 5.15918 -1.95073 0.17
-11.2456 5.12183 -1.94972 0.05
-11.2545 5.08257 -1.9487 0.16
-11.2478 5.05875 -1.94571 0.05
-11.2659 5.02424 -1.94569 0.15
-11.2718 4.98506 -1.94468 0.05
-11.2787 4.94585 -1.94267 0.15
-11.2856 4.90565 -1.94066 0.05
-11.3057 4.87309 -1.94163 0.16
-11.3126 4.83288 -1.94062 0.05
-11.2983 4.78526 -1.93463 0.16
-11.3089 4.76896 -1.93562 0.05
-11.3148 4.72978 -1.93361 0.16
-11.3258 4.69247 -1.9336 0.05
-11.3175 4.64668 -1.9286 0.16
-11.3356 4.61317 -1.92958 0.19
-11.3405 4.57402 -1.92757 0.1
-11.3333 4.5292 -1.92357 0.18
-11.3307 4.50726 -1.92257 0.1
-11.3326 4.4672 -1.91957 0.18
-11.3426 4.42991 -1.91955 0.11
-11.3414 4.38892 -1.91655 0.18
-11.3292 4.34324 -1.91156 0.12
-11.326 4.30131 -1.90856 0.21
-11.3228 4.25939 -1.90556 0.17
-11.3293 4.2412 -1.90555 0.26
-11.3282 4.20022 -1.90354 0.21
-11.316 4.15454 -1.89855 0.18
-11.3411 4.12383 -1.90052 0.27
-11.3319 4.08007 -1.89653 0.23
-11.3278 4.03817 -1.89353 0.21
-11.3014 3.98887 -1.88755 0.25
-11.3019 3.96985 -1.88655 0.36
-11.3311 3.94004 -1.88952 0.36
-11.333 3.89997 -1.88751 0.27
-11.35 3.86649 -1.88849 0.37
-11.36 3.8302 -1.88748 0.28
-11.3872 3.79944 -1.89045 0.47
-11.4053 3.76493 -1.89143 0.3
-11.3956 3.74219 -1.88843 0.19
-11.4238 3.7124 -1.8914 0.27
-11.4167 3.66959 -1.88841 0.24
-11.4226 3.63241 -1.8874 0.16
-11.4548 3.60251 -1.89136 0.28
-11.4568 3.56344 -1.88936 0.25
-11.4567 3.52443 -1.88735 0.18
-11.4899 3.49551 -1.89132 0.27
-11.4914 3.47646 -1.89032 0.23
-11.4953 3.43734 -1.88931 0.18
-11.5204 3.40563 -1.89128 0.26
-11.5204 3.36662 -1.89028 0.23
-11.5193 3.32664 -1.88827 0.17
-11.5585 3.29855 -1.89223 0.26
-11.5534 3.25767 -1.89023 0.18
-11.5771 3.24502 -1.89321 0.25
-11.5719 3.20414 -1.89121 0.2
-11.588 3.16969 -1.89119 0.12
-11.5829 3.12881 -1.88919 0.21
-11.6039 3.09522 -1.89117 0.11
-11.5978 3.05537 -1.88817 0.2
-11.6189 3.02178 -1.89015 0.11
-11.6299 2.98547 -1.89113 0.18
-11.6354 2.96731 -1.89113 0.23
-11.6293 2.92646 -1.88813 0.17
-11.6514 2.89384 -1.8901 0.23
-11.6493 2.85388 -1.8881 0.17
-11.6634 2.81849 -1.88908 0.23
-11.6472 2.77591 -1.8851 0.18
-11.6793 2.74502 -1.88906 0.24
-11.6677 2.72333 -1.88607 0.18
-11.6878 2.68876 -1.88805 0.25
-11.6747 2.64711 -1.88506 0.16
-11.7028 2.61532 -1.88803 0.26
-11.6836 2.57184 -1.88304 0.22
-11.6976 2.53644 -1.88402 0.2
-11.7187 2.50284 -1.887 0.25
-11.6995 2.46036 -1.88201 0.22
-11.698 2.44039 -1.88101 0.17
-11.7301 2.4085 -1.88498 0.26
-11.72 2.36876 -1.88199 0.2
-11.7451 2.33506 -1.88496 0.25
-11.7491 2.29693 -1.88495 0.23
-11.7359 2.25628 -1.88096 0.17
-11.747 2.22096 -1.88194 0.27
-11.7444 2.20102 -1.88095 0.23
-11.7323 2.16034 -1.87795 0.17
-11.7705 2.12928 -1.88291 0.26
-11.7784 2.09205 -1.8829 0.23
-11.7563 2.05064 -1.87792 0.18
-11.7793 2.016 -1.88089 0.26
-11.7843 1.97884 -1.88088 0.19
-11.7903 1.94167 -1.88088 0.24
-11.7677 1.91928 -1.8769 0.19
-11.8088 1.88814 -1.88285 0.25
-11.7917 1.84659 -1.87886 0.18
-11.8108 1.81205 -1.88084 0.25
-11.8298 1.77652 -1.88282 0.19
-11.8217 1.73773 -1.88082 0.12
-11.8307 1.70146 -1.88181 0.18
-11.8372 1.68328 -1.8818 0.11
-11.8211 1.64271 -1.87882 0.2
-11.8341 1.60634 -1.8798 0.11
-11.8491 1.57091 -1.88178 0.18
-11.8421 1.53209 -1.87979 0.12
-11.835 1.49327 -1.87779 0.2
-11.857 1.45765 -1.88076 0.11
-11.8405 1.4371 -1.87678 0.19
-11.8605 1.40153 -1.87975 0.11
-11.8645 1.36441 -1.87975 0.18
-11.8544 1.32567 -1.87775 0.22
-11.8473 1.28685 -1.87576 0.17
-11.8744 1.25209 -1.87973 0.23
-11.8703 1.21419 -1.87773 0.19
-11.8743 1.17707 -1.87772 0.21
-11.8487 1.15476 -1.87374 0.18
-11.8697 1.11917 -1.87672 0.24
-11.8537 1.0806 -1.87273 0.18
-11.8707 1.04412 -1.87571 0.24
-11.8656 1.00624 -1.87371 0.19
-11.8766 0.969927 -1.8757 0.12
-11.8525 0.930575 -1.87072 0.2
-11.864 0.912252 -1.8727 0.11
-11.851 0.873596 -1.86971 0.2
-11.863 0.837252 -1.8717 0.11
-11.8619 0.799267 -1.87069 0.18
-11.8739 0.762923 -1.87268 0.12
-11.8649 0.725157 -1.87068 0.19
-11.8769 0.687814 -1.87167 0.11
-11.8588 0.649296 -1.86868 0.19
-11.8894 0.63245 -1.87365 0.1
-11.8813 0.594657 -1.87165 0.17
-11.8893 0.557423 -1.87264 0.05
-11.8833 0.519575 -1.87165 0.16
-11.8983 0.483149 -1.87363 0.05
-11.8842 0.445521 -1.87164 0.16
-11.8992 0.408095 -1.87362 0.19
-11.8957 0.389184 -1.87262 0.18
-11.9007 0.352034 -1.87361 0.18
-11.8976 0.314103 -1.87261 0.18
-11.9046 0.276897 -1.8736 0.18
-11.8955 0.239131 -1.87261 0.16
-11.9005 0.20198 -1.8726 0.17
-11.8905 0.164242 -1.8716 0.17
-11.887 0.146331 -1.87061 0.17
-11.88 0.108511 -1.86961 0.17
-11.8639 0.0709376 -1.86662 0.04
-11.8449 0.033447 -1.86363 0.16
-11.8528 -0.00378652 -1.86462 0.05
