ply
format ascii 1.0
element vertex 1570
property double x
property double y
property double z
property float intensity
end_header
10.8195 1.09989 -1.60955 0.11
10.8105 1.13365 -1.60855 0.18
10.8106 1.16767 -1.60955 0.23
10.8006 1.20141 -1.60854 0.18
10.8072 1.21859 -1.60955 0.24
10.7913 1.25116 -1.60854 0.23
10.7873 1.28507 -1.60854 0.18
10.7973 1.32036 -1.61055 0.26
10.7834 1.35299 -1.60854 0.23
10.7695 1.38561 -1.60753 0.18
10.7765 1.42082 -1.60854 0.26
10.7511 1.43512 -1.60552 0.24
10.7502 1.46911 -1.60552 0.26
10.7393 1.50182 -1.60452 0.26
10.7463 1.53703 -1.60653 0.27
10.7453 1.57201 -1.60753 0.27
10.7344 1.60472 -1.60652 0.26
10.7195 1.63632 -1.60451 0.17
10.731 1.65565 -1.60753 0.29
10.7141 1.68719 -1.60551 0.25
10.7201 1.72337 -1.60752 0.25
10.7092 1.75608 -1.60651 0.27
10.7093 1.7901 -1.60752 0.27
10.7153 1.82628 -1.60853 0.25
10.6904 1.8556 -1.60551 0.21
10.7064 1.89306 -1.60953 0.28
10.6989 1.90986 -1.60852 0.24
10.705 1.94504 -1.61053 0.24
10.6851 1.9765 -1.60851 0.18
10.6861 2.01154 -1.60952 0.29
10.6742 2.04322 -1.60851 0.25
10.6623 2.0759 -1.6075 0.27
10.6693 2.11211 -1.60951 0.25
10.6579 2.1278 -1.6085 0.17
10.6549 2.16173 -1.60951 0.28
10.639 2.1933 -1.60749 0.25
10.6381 2.22729 -1.6085 0.27
10.6272 2.26 -1.60849 0.28
10.6292 2.29507 -1.60949 0.26
10.6223 2.32889 -1.60949 0.27
10.6188 2.3458 -1.60949 0.28
10.6149 2.3797 -1.61049 0.29
10.604 2.41241 -1.60948 0.27
10.5921 2.44409 -1.60848 0.28
10.5802 2.47678 -1.60847 0.29
10.5732 2.5096 -1.60846 0.29
10.5663 2.54342 -1.60846 0.29
10.5569 2.55916 -1.60745 0.29
10.5489 2.59195 -1.60745 0.29
10.55 2.627 -1.60945 0.29
10.552 2.66307 -1.61046 0.28
10.551 2.69805 -1.61246 0.27
10.5292 2.72746 -1.60944 0.28
10.5222 2.76128 -1.61044 0.29
10.5108 2.77597 -1.60843 0.3
10.494 2.80651 -1.60742 0.29
10.499 2.84266 -1.60943 0.29
10.5049 2.87984 -1.61244 0.27
10.4861 2.91033 -1.61042 0.29
10.4732 2.94199 -1.61041 0.29
10.4712 2.97694 -1.61142 0.28
10.4544 3.00749 -1.6104 0.29
10.4519 3.02443 -1.6104 0.27
10.444 3.05822 -1.6104 0.28
10.4311 3.08987 -1.61039 0.27
10.4321 3.12591 -1.61239 0.27
10.4172 3.15651 -1.61138 0.27
10.4142 3.19145 -1.61238 0.27
10.3974 3.22199 -1.61137 0.27
10.3999 3.24106 -1.61237 0.26
10.389 3.27377 -1.61237 0.27
10.3731 3.30435 -1.61136 0.27
10.3721 3.34033 -1.61336 0.27
10.3711 3.37532 -1.61436 0.26
10.3473 3.40367 -1.61234 0.18
10.3612 3.44407 -1.61636 0.29
10.3458 3.45765 -1.61435 0.25
10.33 3.48822 -1.61333 0.26
10.324 3.52207 -1.61433 0.27
10.326 3.55914 -1.61734 0.25
10.2923 3.58321 -1.61331 0.18
10.3022 3.6235 -1.61632 0.28
10.2794 3.65188 -1.6143 0.25
10.2779 3.66884 -1.6153 0.25
10.2551 3.69722 -1.61328 0.27
10.2541 3.73321 -1.61529 0.25
10.2462 3.767 -1.61628 0.27
10.2274 3.79649 -1.61427 0.27
10.2115 3.82706 -1.61426 0.29
10.2016 3.8598 -1.61425 0.28
10.1912 3.87452 -1.61324 0.28
10.1971 3.91369 -1.61725 0.25
10.1743 3.94107 -1.61523 0.29
10.1694 3.97595 -1.61623 0.27
10.1545 4.00655 -1.61622 0.27
10.1426 4.03923 -1.61621 0.29
10.1149 4.06447 -1.61319 0.3
10.108 4.09829 -1.61419 0.27
10.0975 4.11301 -1.61318 0.29
10.0777 4.14147 -1.61216 0.29
10.0639 4.1731 -1.61215 0.27
10.049 4.2037 -1.61214 0.29
10.043 4.23854 -1.61314 0.27
10.0213 4.26595 -1.61212 0.29
10.0163 4.30182 -1.61312 0.27
10.0029 4.31446 -1.61211 0.28
10.0019 4.35144 -1.61411 0.28
9.98406 4.38096 -1.6131 0.29
9.99194 4.42119 -1.61711 0.27
9.98891 4.45812 -1.61911 0.28
9.99479 4.4983 -1.62312 0.26
9.97402 4.52574 -1.6211 0.21
9.95079 4.53409 -1.61908 0.27
9.92899 4.5625 -1.61706 0.45
9.9329 4.60162 -1.62007 0.38
9.92002 4.63328 -1.62106 0.36
9.91402 4.66913 -1.62206 0.34
9.91396 4.70714 -1.62506 0.41
9.90996 4.74304 -1.62706 0.39
9.93608 4.77478 -1.63309 0.21
9.93503 4.81276 -1.6351 0.25
9.931 4.84967 -1.6371 0.2
9.93091 4.88868 -1.6401 0.12
9.919 4.92136 -1.64009 0.21
9.92386 4.96251 -1.6441 0.11
9.91786 4.99836 -1.6461 0.18
9.92421 5.02154 -1.64811 0.11
9.9261 5.06161 -1.65111 0.17
9.91713 5.09637 -1.65311 0.21
9.9121 5.13325 -1.65511 0.1
9.90116 5.16696 -1.6561 0.17
9.8991 5.20492 -1.6581 0.21
9.90196 5.24601 -1.66111 0.1
9.88114 5.27544 -1.66109 0.16
9.88749 5.29863 -1.6631 0.21
9.87064 5.32917 -1.66309 0.1
9.86264 5.36496 -1.66508 0.17
9.8507 5.39865 -1.66608 0.21
9.84761 5.43757 -1.66808 0.1
9.82188 5.46387 -1.66706 0.17
9.81979 5.50283 -1.67006 0.22
9.81529 5.52071 -1.67005 0.19
9.80829 5.55653 -1.67205 0.23
9.79041 5.58804 -1.67204 0.18
9.78341 5.62386 -1.67404 0.24
9.7675 5.65643 -1.67402 0.19
9.77033 5.69853 -1.67803 0.25
9.75051 5.72799 -1.67801 0.19
9.75189 5.75004 -1.68002 0.25
9.72615 5.77633 -1.678 0.19
9.72013 5.81318 -1.68099 0.25
9.71407 5.85103 -1.68299 0.23
9.69522 5.88151 -1.68298 0.18
9.70096 5.92669 -1.68699 0.26
9.68505 5.95926 -1.68798 0.24
9.67269 5.97192 -1.68697 0.18
9.69218 6.02648 -1.69399 0.26
9.65858 6.04756 -1.69196 0.2
9.66136 6.09165 -1.69597 0.25
9.64839 6.12631 -1.69696 0.22
9.64231 6.16515 -1.69896 0.12
9.61954 6.19253 -1.69894 0.21
9.63861 6.22607 -1.70396 0.11
9.62073 6.25759 -1.70395 0.2
9.6107 6.29432 -1.70594 0.11
9.58596 6.32065 -1.70492 0.18
9.59556 6.37093 -1.71093 0.18
9.58554 6.40767 -1.71293 0.17
9.5696 6.44124 -1.71392 0.04
9.55469 6.47384 -1.71491 0.16
9.55113 6.49375 -1.7159 0.05
9.53425 6.52529 -1.71689 0.17
9.52811 6.56614 -1.71989 0.05
9.51023 6.59765 -1.71988 0.16
9.49429 6.63122 -1.72086 0.05
9.48032 6.66585 -1.72185 0.16
9.47715 6.70778 -1.72586 0.05
9.45985 6.7183 -1.72484 0.17
9.4616 6.76336 -1.72885 0.05
9.44466 6.79691 -1.72983 0.16
9.43658 6.8357 -1.73183 0.05
9.41181 6.86302 -1.73181 0.17
9.41056 6.908 -1.73581 0.05
9.3907 6.93846 -1.7358 0.17
9.37929 6.95315 -1.73579 0.05
9.37021 6.99191 -1.73878 0.18
9.36113 7.03068 -1.74078 0.05
9.3295 7.05281 -1.73875 0.17
9.32922 7.09882 -1.74376 0.11
9.31034 7.13031 -1.74374 0.18
9.29929 7.16801 -1.74673 0.11
9.28526 7.20464 -1.74772 0.2
9.27779 7.22144 -1.74872 0.11
9.27063 7.26325 -1.75172 0.19
9.24783 7.29163 -1.7517 0.11
9.23578 7.32931 -1.75369 0.18
9.21489 7.36074 -1.75467 0.23
9.20187 7.3974 -1.75666 0.19
9.18296 7.42988 -1.75765 0.25
9.18329 7.4539 -1.75965 0.22
9.17512 7.49569 -1.76265 0.23
9.15424 7.52712 -1.76363 0.25
9.12165 7.54823 -1.7616 0.29
9.10568 7.5828 -1.76359 0.37
9.08677 7.61528 -1.76458 0.36
9.08024 7.63411 -1.76557 0.23
9.08965 7.69139 -1.77259 0.25
9.06974 7.72385 -1.77357 0.22
9.05277 7.75839 -1.77456 0.2
9.04069 7.79707 -1.77755 0.25
9.02958 7.83678 -1.78055 0.19
9.01064 7.87027 -1.78153 0.25
8.98196 7.89448 -1.78051 0.22
8.97835 7.91639 -1.78251 0.18
8.96916 7.95915 -1.7855 0.26
8.93167 7.97612 -1.78347 0.23
8.91371 8.01063 -1.78445 0.18
8.9016 8.05031 -1.78745 0.27
8.87486 8.07658 -1.78742 0.23
8.84812 8.10284 -1.7864 0.18
8.8552 8.13605 -1.79141 0.26
8.82751 8.16029 -1.79039 0.23
8.80172 8.18859 -1.79037 0.18
8.78861 8.22824 -1.79336 0.27
8.76284 8.25553 -1.79334 0.24
8.7351 8.28177 -1.79331 0.19
8.73077 8.32967 -1.79731 0.27
8.68745 8.34047 -1.79427 0.25
8.68576 8.36544 -1.79627 0.2
8.67751 8.41022 -1.80027 0.27
8.64977 8.43646 -1.80025 0.25
8.62791 8.46687 -1.80123 0.19
8.62258 8.51474 -1.80523 0.27
8.5929 8.53892 -1.8052 0.25
8.57096 8.57233 -1.80618 0.2
8.57901 8.60656 -1.8112 0.27
8.54152 8.62353 -1.80916 0.25
8.53036 8.66524 -1.81216 0.2
8.52108 8.711 -1.81615 0.27
8.4836 8.72796 -1.81412 0.25
8.46755 8.76553 -1.81611 0.2
8.45632 8.80924 -1.8201 0.27
8.43711 8.81671 -1.81908 0.24
8.42395 8.85836 -1.82207 0.25
8.38938 8.8784 -1.82104 0.17
8.38204 8.92622 -1.82604 0.28
8.35916 8.95759 -1.82702 0.25
8.33528 8.98894 -1.828 0.2
8.325 9.03468 -1.832 0.27
8.30579 9.04215 -1.83098 0.24
8.28677 9.07863 -1.83297 0.19
8.2726 9.12025 -1.83696 0.27
8.25161 9.15568 -1.83794 0.23
8.2171 9.17373 -1.83691 0.19
8.21165 9.2256 -1.84191 0.27
8.17999 9.24873 -1.84188 0.25
8.17141 9.2695 -1.84288 0.19
8.15822 9.31215 -1.84687 0.28
8.145 9.3558 -1.85086 0.23
8.11529 9.38099 -1.85083 0.19
8.10201 9.42663 -1.85483 0.28
8.07813 9.45798 -1.85581 0.24
8.04842 9.48317 -1.85578 0.19
8.04292 9.53704 -1.86178 0.27
8.02368 9.5455 -1.86076 0.24
8.00365 9.58196 -1.86375 0.2
7.99618 9.63478 -1.86875 0.27
7.96838 9.66301 -1.86972 0.24
7.93965 9.68923 -1.8697 0.17
7.92926 9.73896 -1.87469 0.29
7.90049 9.76617 -1.87567 0.25
7.91029 9.80946 -1.88168 0.2
7.90181 9.86224 -1.88768 0.28
7.86724 9.88229 -1.88665 0.24
7.85777 9.93505 -1.89265 0.19
7.84829 9.9878 -1.89764 0.28
7.82144 10.0181 -1.89962 0.24
7.79556 10.0494 -1.9006 0.19
7.80819 10.0987 -1.90762 0.28
7.79003 10.1402 -1.9116 0.24
7.78147 10.196 -1.9176 0.22
7.74493 10.215 -1.91657 0.35
7.73929 10.2739 -1.92357 0.27
7.72781 10.3266 -1.92856 0.27
7.70962 10.3691 -1.93255 0.28
7.6914 10.4126 -1.93654 0.23
7.67696 10.4282 -1.93752 0.26
7.6462 10.4554 -1.9375 0.3
7.61835 10.4856 -1.93847 0.33
7.58275 10.5066 -1.93844 0.32
7.52025 10.4879 -1.93038 0.26
7.47508 10.4936 -1.92634 0.3
7.43374 10.5055 -1.9243 0.32
7.40489 10.4997 -1.92127 0.46
7.36549 10.5136 -1.91924 0.33
7.32898 10.5316 -1.9182 0.34
7.28763 10.5435 -1.91616 0.4
7.24732 10.5543 -1.91313 0.34
7.206 10.5652 -1.91109 0.29
7.15989 10.5689 -1.90704 0.28
7.13876 10.5733 -1.90602 0.3
7.07923 10.5557 -1.89897 0.3
7.03792 10.5665 -1.89593 0.28
6.99857 10.5784 -1.89489 0.26
6.95059 10.5771 -1.88985 0.26
6.91214 10.593 -1.88881 0.2
6.88431 10.6223 -1.88979 0.26
6.86896 10.6349 -1.89077 0.19
6.8488 10.6763 -1.89476 0.24
6.81423 10.6964 -1.89373 0.21
6.78635 10.7276 -1.8957 0.18
6.76424 10.767 -1.89969 0.28
6.71915 10.7698 -1.89564 0.24
6.64436 10.7257 -1.88357 0.27
6.67877 10.8187 -1.89861 0.19
6.65378 10.854 -1.90159 0.27
6.61347 10.8649 -1.89955 0.24
6.57029 10.8707 -1.89651 0.2
6.53666 10.8927 -1.89748 0.27
6.5107 10.927 -1.89946 0.23
6.47041 10.9369 -1.89742 0.19
6.44542 10.9722 -1.9004 0.27
6.42718 10.9807 -1.90039 0.23
6.38308 10.9835 -1.89735 0.2
6.36281 11.029 -1.90133 0.26
6.32347 11.0409 -1.90029 0.19
6.29081 11.064 -1.90027 0.24
6.26007 11.0901 -1.90224 0.2
6.22259 11.1071 -1.9012 0.12
6.20723 11.1197 -1.90219 0.2
6.18316 11.158 -1.90517 0.11
6.13618 11.1567 -1.90113 0.2
6.10258 11.1778 -1.9021 0.17
6.07656 11.2141 -1.90508 0.26
6.04102 11.2331 -1.90504 0.19
6.00839 11.2552 -1.90502 0.24
5.96713 11.2641 -1.90398 0.19
5.95272 11.2787 -1.90396 0.23
5.91243 11.2886 -1.90293 0.19
5.88452 11.3208 -1.9049 0.24
5.83757 11.3185 -1.90186 0.18
5.81438 11.3609 -1.90584 0.24
5.77315 11.3687 -1.9038 0.18
5.73575 11.3827 -1.90377 0.23
5.71181 11.38 -1.90074 0.18
5.67822 11.4011 -1.90171 0.23
5.63415 11.4029 -1.89867 0.19
5.60055 11.424 -1.89964 0.13
5.56029 11.4328 -1.89761 0.18
5.52381 11.4498 -1.89757 0.23
5.48546 11.4618 -1.89654 0.2
5.46442 11.4632 -1.89552 0.23
5.42321 11.47 -1.89348 0.18
5.39525 11.5043 -1.89645 0.23
5.36825 11.5395 -1.89943 0.19
5.32233 11.5363 -1.89639 0.23
5.2887 11.5583 -1.89736 0.19
5.25033 11.5713 -1.89632 0.22
5.2139 11.5863 -1.89629 0.18
5.19377 11.5907 -1.89527 0.25
5.15356 11.5976 -1.89423 0.19
5.11805 11.6156 -1.8942 0.12
5.07876 11.6255 -1.89316 0.19
5.04605 11.6506 -1.89514 0.11
5.00865 11.6646 -1.8941 0.18
4.9741 11.6837 -1.89507 0.23
4.95206 11.685 -1.89405 0.19
4.91474 11.696 -1.89302 0.12
4.87728 11.712 -1.89298 0.2
4.8446 11.7361 -1.89495 0.11
4.80723 11.7491 -1.89392 0.2
4.77543 11.7772 -1.89689 0.11
4.73614 11.7871 -1.89585 0.19
4.70718 11.8213 -1.89883 0.11
4.69174 11.8369 -1.89982 0.18
4.64964 11.8397 -1.89778 0.23
4.61596 11.8638 -1.89975 0.2
4.57764 11.8747 -1.89871 0.12
4.53835 11.8846 -1.89868 0.19
4.50284 11.9027 -1.89864 0.11
4.46452 11.9136 -1.89861 0.19
4.44814 11.9272 -1.89959 0.11
4.40793 11.934 -1.89856 0.18
4.37797 11.9682 -1.90153 0.11
4.33588 11.9711 -1.89949 0.2
4.30314 11.9972 -1.90246 0.11
4.26201 12.001 -1.90042 0.18
4.2283 12.0261 -1.90239 0.11
4.20543 12.0214 -1.90037 0.19
4.16991 12.0395 -1.90134 0.11
4.13248 12.0544 -1.9013 0.18
4.09419 12.0644 -1.90127 0.21
4.05487 12.0753 -1.90023 0.17
4.02116 12.1004 -1.9022 0.13
3.98373 12.1153 -1.90317 0.2
3.95371 12.1515 -1.90714 0.11
3.93178 12.1489 -1.90512 0.19
3.90081 12.1831 -1.9091 0.11
3.86799 12.2122 -1.91207 0.18
3.83053 12.2281 -1.91303 0.22
3.79407 12.2441 -1.913 0.19
3.75478 12.254 -1.91296 0.22
3.7219 12.2851 -1.91594 0.2
3.70091 12.2845 -1.91492 0.22
3.65979 12.2884 -1.91388 0.19
3.62508 12.3134 -1.91585 0.22
3.58585 12.3214 -1.91481 0.2
3.54933 12.3394 -1.91678 0.23
3.5109 12.3543 -1.91674 0.2
3.47164 12.3632 -1.9167 0.22
3.45062 12.3636 -1.91568 0.18
3.41774 12.3947 -1.91866 0.23
3.38117 12.4147 -1.92062 0.2
3.34008 12.4176 -1.91958 0.12
3.30087 12.4245 -1.91855 0.2
3.2643 12.4445 -1.92052 0.11
3.22412 12.4504 -1.91948 0.2
3.18666 12.4663 -1.92044 0.11
3.1665 12.4718 -1.92042 0.2
3.12816 12.4837 -1.92039 0.2
3.09336 12.5118 -1.92336 0.24
3.05049 12.5066 -1.92132 0.18
3.01206 12.5215 -1.92228 0.23
2.97277 12.5314 -1.92225 0.19
2.93356 12.5383 -1.92221 0.23
2.9126 12.5368 -1.92119 0.19
2.87506 12.5557 -1.92215 0.23
2.83585 12.5626 -1.92212 0.2
2.79831 12.5816 -1.92308 0.24
2.75902 12.5915 -1.92405 0.18
2.71881 12.5984 -1.92301 0.24
2.68046 12.6103 -1.92397 0.18
2.66039 12.6128 -1.92396 0.24
2.61924 12.6176 -1.92292 0.19
2.58358 12.6407 -1.92588 0.24
2.53894 12.6274 -1.92184 0.22
2.49965 12.6373 -1.9228 0.17
2.46388 12.6643 -1.92577 0.26
2.42201 12.6592 -1.92273 0.23
2.38264 12.6721 -1.9237 0.18
2.36525 12.6856 -1.92568 0.26
2.32324 12.6854 -1.92464 0.23
2.28492 12.6964 -1.9246 0.23
2.24466 12.7053 -1.92557 0.29
2.20451 12.7102 -1.92453 0.3
2.1653 12.7171 -1.92449 0.29
2.12254 12.7079 -1.92245 0.3
2.10333 12.7154 -1.92243 0.29
2.06404 12.7253 -1.9234 0.28
2.023 12.7261 -1.92236 0.27
1.98113 12.721 -1.92032 0.27
1.94189 12.7289 -1.92128 0.26
1.90082 12.7307 -1.92024 0.2
1.8632 12.7527 -1.92221 0.27
1.82224 12.7506 -1.92117 0.23
1.80211 12.755 -1.92215 0.2
1.76446 12.778 -1.92412 0.27
1.72356 12.7738 -1.92308 0.25
1.68418 12.7867 -1.92404 0.2
1.64395 12.7946 -1.924 0.28
1.60391 12.7955 -1.92396 0.23
1.56292 12.7944 -1.92292 0.18
1.5444 12.8129 -1.92491 0.26
1.50336 12.8137 -1.92487 0.24
1.46407 12.8236 -1.92583 0.2
1.42481 12.8326 -1.9258 0.27
1.38296 12.8264 -1.92476 0.24
1.34359 12.8393 -1.92572 0.2
1.30571 12.8703 -1.92969 0.26
1.28569 12.8707 -1.92967 0.23
1.24462 12.8726 -1.92963 0.19
1.20611 12.8905 -1.93159 0.26
1.1651 12.8904 -1.93055 0.25
1.12428 12.8832 -1.92951 0.2
1.08624 12.9202 -1.93448 0.27
1.0445 12.91 -1.93244 0.23
1.00424 12.9189 -1.9334 0.19
0.984915 12.9304 -1.93439 0.27
0.943098 12.9232 -1.93335 0.25
0.903779 12.9341 -1.93431 0.18
0.863404 12.947 -1.93627 0.27
0.823253 12.9519 -1.93623 0.23
0.78285 12.9658 -1.9382 0.26
0.741755 12.9686 -1.93816 0.18
0.723232 12.9871 -1.94114 0.26
0.682221 12.987 -1.9401 0.22
0.640349 12.9818 -1.93906 0.18
0.600918 12.9967 -1.94103 0.26
0.559794 13.0006 -1.94199 0.22
0.51895 12.9945 -1.93995 0.17
0.478603 13.0064 -1.94191 0.28
0.457974 12.9928 -1.93989 0.24
0.416906 12.9946 -1.93985 0.2
0.37642 13.0115 -1.94181 0.26
0.335659 13.0024 -1.94077 0.23
0.294452 13.0092 -1.94173 0.18
0.25391 13.0281 -1.9437 0.26
0.212926 13.027 -1.94366 0.22
0.172332 13.0119 -1.94162 0.21
0.151726 13.0333 -1.9446 0.26
0.110854 13.0282 -1.94356 0.22
0.0696747 13.034 -1.94452 0.18
0.0291042 13.0539 -1.94748 0.26
-0.0119633 13.0558 -1.94745 0.2
-0.0530317 13.0576 -1.94841 0.25
-0.0937641 13.0475 -1.94637 0
-0.0676726 9.17576 -1.33099 0
-0.0946684 9.03196 -1.30794 0
-0.121005 8.93619 -1.29291 0
-0.148208 8.87141 -1.28288 0
-0.175081 8.83065 -1.27685 0
-0.202092 8.79489 -1.27082 0
-0.229027 8.79214 -1.27079 0
-0.256401 8.76937 -1.26676 0
-0.269117 8.75901 -1.26575 0
-0.296883 8.75024 -1.26372 0
-0.323817 8.74749 -1.2637 0
-0.350304 8.72875 -1.26067 0
-0.37821 8.72497 -1.26064 0
-0.404864 8.71223 -1.25861 0
-0.431519 8.69948 -1.25659 0
-0.445653 8.70409 -1.25757 0
-0.472727 8.70634 -1.25855 0
-0.497376 8.65764 -1.25052 0
-0.525728 8.66986 -1.25249 0
-0.552747 8.67011 -1.25347 0
-0.605001 8.64264 -1.24942 0.16
-0.617549 8.62629 -1.2464 0.22
-0.647599 8.66347 -1.25338 0.27
-0.689386 8.83437 -1.28035 0.13
-0.720269 8.86553 -1.28633 0.26
-0.751206 8.89868 -1.2913 0.04
-0.783478 8.9438 -1.29928 0.12
-0.809965 8.92506 -1.29625 0.22
-0.836732 8.91631 -1.29522 0.22
-0.850727 8.91592 -1.29521 0.19
-0.875712 8.87922 -1.29018 0.26
-0.890077 8.74877 -1.27015 0.15
-0.903498 8.62035 -1.25013 0.26
-0.930208 8.6096 -1.2481 0
-0.957338 8.61385 -1.25008 0
-0.98555 8.62107 -1.25105 0
-1.0021 8.64062 -1.25504 0
-1.05583 8.63012 -1.25398 0.27
-1.08404 8.63734 -1.25596 0.32
-1.10839 8.61366 -1.25193 0.3
-1.1378 8.62785 -1.2549 0.32
-1.1646 8.6201 -1.25488 0.29
-1.17734 8.61074 -1.25286 0.3
-1.20425 8.60699 -1.25284 0.29
-1.23243 8.61321 -1.25481 0.27
-1.26042 8.61244 -1.25579 0.26
-1.28499 8.59675 -1.25376 0.18
-1.31312 8.60097 -1.25473 0.29
-1.34117 8.60219 -1.25571 0.25
-1.36921 8.60341 -1.25668 0.21
-1.38318 8.60202 -1.25667 0.25
-1.41006 8.59728 -1.25664 0.21
-1.43705 8.59653 -1.25661 0.12
-1.46156 8.57884 -1.25459 0.2
-1.49197 8.593 -1.25756 0.11
-1.51868 8.58225 -1.25653 0.2
-1.55026 8.60238 -1.26051 0.11
-1.57597 8.59167 -1.26048 0.18
-1.58774 8.58334 -1.25947 0.05
-1.61457 8.57659 -1.25844 0.17
-1.64256 8.57581 -1.25942 0.05
-1.66946 8.57206 -1.25939 0.17
-1.70087 8.5862 -1.26236 0.19
-1.72436 8.56754 -1.26034 0.18
-1.75349 8.57173 -1.26231 0.04
-1.76973 8.58028 -1.26429 0.07
-1.79436 8.56659 -1.26227 0.19
-1.82355 8.57279 -1.26424 0.18
-1.85145 8.56901 -1.26522 0.16
-1.87825 8.56126 -1.26419 0.04
-1.90852 8.57043 -1.26716 0.07
-1.93087 8.5468 -1.26414 0.04
-1.94933 8.56329 -1.26712 0
-1.9751 8.55457 -1.2671 0
-2.00078 8.54285 -1.26607 0
-2.03216 8.55599 -1.26904 0
-2.05904 8.55124 -1.26901 0
-2.08587 8.54449 -1.26899 0
-2.11713 8.55363 -1.27196 0
-2.13951 8.531 -1.26894 0
-2.16473 8.57431 -1.27692 0
-2.18478 8.53974 -1.27189 0
-2.21271 8.53697 -1.27287 0
-2.23953 8.53022 -1.27284 0
-2.27077 8.53836 -1.27581 0
-2.29651 8.52864 -1.27479 0
-2.32556 8.52983 -1.27576 0
-2.34178 8.53738 -1.27774 0
-2.37079 8.53758 -1.27972 0
-2.39642 8.52386 -1.27869 0
-2.42661 8.53002 -1.28066 0
-2.45224 8.51631 -1.27964 0
-2.48125 8.5165 -1.28061 0
-2.50913 8.51173 -1.28158 0
-2.52418 8.51331 -1.28257 0
-2.55214 8.51153 -1.28354 0
-2.5833 8.51667 -1.28551 0
-2.60901 8.50595 -1.28548 0
-2.63475 8.49623 -1.28446 0
-2.6681 8.50831 -1.28843 0
-2.69487 8.49956 -1.2884 0
-2.72492 8.50073 -1.28937 0
-2.74327 8.51323 -1.29236 0
-2.76674 8.49357 -1.29033 0
-2.80009 8.50565 -1.2943 0
-2.82788 8.49787 -1.29427 0
-2.85582 8.49509 -1.29525 0
-2.88472 8.49129 -1.29622 0
-2.91802 8.50137 -1.29919 0
-2.93085 8.49501 -1.29918 0
-2.9587 8.48923 -1.29915 0
-2.98544 8.47949 -1.29912 0
-3.01118 8.46977 -1.2991 0
-3.0412 8.46994 -1.30107 0
-3.07657 8.48296 -1.30503 0
-3.15415 8.60985 -1.32797 0
-3.2025 8.65753 -1.33793 0.04
-3.26066 8.76996 -1.35789 0.13
-3.30249 8.7988 -1.36385 0.1
-3.3302 8.78803 -1.36382 0.09
-3.36113 8.78517 -1.36579 0
-3.38348 8.76154 -1.36277 0
-3.39722 8.71614 -1.35675 0
-3.41532 8.68363 -1.35373 0
-3.40976 8.62776 -1.34473 0
-3.36875 8.44883 -1.31575 0
-3.38905 8.42326 -1.31373 0
-3.5367 8.48018 -1.33059 0
-3.57841 8.50503 -1.33656 0
-3.59232 8.50165 -1.33754 0
-5.55986 12.2884 -2.01206 0.2
-5.60474 12.2832 -2.01402 0.16
-5.64222 12.2641 -2.01398 0.23
-5.67968 12.2441 -2.01394 0.2
-5.72991 12.2517 -2.01789 0.22
-5.76626 12.2277 -2.01685 0.18
-5.808 12.2175 -2.01781 0.24
-5.82993 12.2149 -2.01979 0.19
-5.8727 12.2057 -2.02075 0.23
-5.91649 12.1975 -2.02271 0.2
-5.95922 12.1873 -2.02467 0.12
-5.98187 12.1387 -2.01864 0.2
-6.0288 12.1353 -2.02159 0.11
-6.06632 12.1173 -2.02156 0.2
-6.09034 12.1176 -2.02353 0.11
-6.12777 12.0966 -2.0235 0.19
-6.17789 12.1002 -2.02745 0.11
-6.20693 12.0654 -2.02442 0.2
-6.25278 12.0591 -2.02637 0.11
-6.28815 12.0361 -2.02634 0.18
-6.33086 12.0249 -2.02729 0.11
-6.36512 11.998 -2.02626 0.18
-6.38176 11.9845 -2.02624 0.21
-6.41602 11.9575 -2.02421 0.1
-6.44503 11.9217 -2.02117 0.18
-6.48252 11.9027 -2.02214 0.1
-6.51573 11.8737 -2.0201 0.18
-6.55213 11.8517 -2.02006 0.22
-6.58748 11.8277 -2.01903 0.1
-6.60625 11.8192 -2.02001 0.17
-6.64576 11.8011 -2.01997 0.05
-6.68638 11.787 -2.02093 0.18
-6.72592 11.7699 -2.02189 0.2
-6.76863 11.7587 -2.02385 0.1
-6.80087 11.7308 -2.02281 0.18
-6.84141 11.7136 -2.02377 0.21
-6.86124 11.7071 -2.02375 0.1
-6.90811 11.7018 -2.02671 0.17
-6.94557 11.6817 -2.02767 0.05
-6.98403 11.6616 -2.02763 0.18
-7.02776 11.6514 -2.02959 0.05
-7.06416 11.6294 -2.02955 0.18
-7.10998 11.6221 -2.03251 0.11
-7.12664 11.6097 -2.03249 0.17
-7.15674 11.5768 -2.03046 0.05
-7.19417 11.5558 -2.03042 0.17
-7.23266 11.5367 -2.03138 0.05
-7.26798 11.5117 -2.03034 0.18
-7.3096 11.4975 -2.0323 0.2
-7.35439 11.4893 -2.03526 0.1
-7.39077 11.4663 -2.03522 0.19
-7.42304 11.4754 -2.03919 0.11
-7.46255 11.4573 -2.04015 0.16
-7.49581 11.4303 -2.03912 0.05
-7.53013 11.4054 -2.03908 0.17
-7.58109 11.403 -2.04303 0.2
-7.62166 11.3868 -2.04499 0.14
-6.5606 9.68166 -1.72683 0.64
-6.62326 9.73994 -1.73977 0
-6.5046 9.50315 -1.69786 0
-6.49548 9.42737 -1.68786 0
-6.44506 9.01862 -1.62987 0
-6.44436 8.95762 -1.62186 0
-6.44474 8.89958 -1.61386 0
-6.45242 8.85235 -1.60884 0
-6.51541 8.45646 -1.56474 0
-6.53668 8.42985 -1.56372 0
-6.54312 8.40967 -1.56171 0
-6.56753 8.38798 -1.56069 0
-6.60641 8.3829 -1.56465 0
-6.62662 8.35433 -1.56263 0
-6.78258 8.38601 -1.58148 0
-6.79216 8.37074 -1.58147 0
-6.81445 8.34511 -1.58044 0.06
-6.89937 8.34075 -1.58836 0.16
-6.98063 8.38451 -1.60129 0
-7.16846 8.55436 -1.64113 0
-7.20931 8.54822 -1.64509 0.1
-7.07949 8.34175 -1.60619 0.24
-7.07668 8.31281 -1.60319 0.27
-7.13305 8.32525 -1.61014 0.2
-7.18323 8.33086 -1.61609 0.22
-7.3822 8.5054 -1.65692 0
-7.25771 8.31079 -1.62102 0
-7.37188 8.38664 -1.64192 0
-7.37965 8.34241 -1.6379 0
-7.36449 8.30082 -1.63091 0
-8.63373 8.17952 -1.75669 0
-8.67408 8.19141 -1.76265 0
-8.75067 8.21129 -1.77358 0
-8.79749 8.20398 -1.77753 0
-8.82987 8.18108 -1.7795 0
-8.88283 8.1786 -1.78545 0
-8.9337 8.17319 -1.7904 0
-8.9928 8.17555 -1.79734 0
-9.03517 8.18838 -1.8043 0
-9.09835 8.19362 -1.81224 0
-9.24518 8.22056 -1.83211 0.12
-9.26625 8.18696 -1.83108 0.33
-9.3171 8.18054 -1.83603 0.17
-9.38941 8.19054 -1.84597 0.15
-9.41357 8.15986 -1.84594 0.28
-9.44362 8.16102 -1.84891 0.14
-9.49952 8.15647 -1.85586 0.19
-9.51751 8.11996 -1.85384 0.27
-9.57649 8.11832 -1.86078 0.12
-9.51867 8.01788 -1.84382 0
-9.65858 8.08402 -1.8677 0.06
-10.9638 9.11016 -2.12956 0.18
-10.9732 9.08889 -2.12855 0.22
-11.0033 9.05604 -2.12851 0.19
-11.0222 9.0135 -2.12749 0.11
-11.0512 8.97968 -2.12746 0.18
-11.068 8.9362 -2.12444 0.23
-11.0787 8.88689 -2.12142 0.18
-11.1036 8.85018 -2.1204 0.23
-11.11 8.82599 -2.11939 0.18
-11.1268 8.78251 -2.11737 0.25
-11.1538 8.74775 -2.11734 0.19
-11.1625 8.69849 -2.11332 0.22
-11.1772 8.65306 -2.1103 0.19
-11.2032 8.61733 -2.11028 0.23
-11.2129 8.56904 -2.10626 0.19
-11.2368 8.53136 -2.10623 0.11
-11.2391 8.50529 -2.10423 0.19
-11.259 8.46472 -2.10221 0.11
-11.2778 8.42318 -2.10118 0.19
-11.2957 8.38167 -2.09916 0.11
-11.3095 8.33727 -2.09715 0.2
-11.3416 8.30636 -2.09811 0.11
-11.3472 8.25519 -2.0941 0.19
-11.3699 8.24456 -2.09608 0.11
-11.3796 8.19727 -2.09306 0.18
-11.4118 8.16636 -2.09403 0.11
-11.4194 8.11713 -2.09002 0.19
-11.4464 8.08237 -2.09099 0.11
-11.4623 8.03991 -2.08897 0.19
-11.4842 8.00129 -2.08794 0.11
-11.4773 7.97047 -2.08495 0.19
-11.5135 7.94145 -2.08691 0.11
-11.5335 7.90188 -2.08589 0.18
-11.5585 7.86618 -2.08586 0.1
-11.5733 7.82275 -2.08384 0.18
-11.6044 7.79087 -2.08481 0.1
-11.6202 7.74842 -2.08379 0.17
-11.6412 7.70982 -2.08276 0.05
-11.6384 7.68189 -2.07976 0.17
-11.6593 7.64329 -2.07974 0.05
-11.6813 7.60567 -2.07871 0.17
-11.6971 7.56321 -2.07769 0.05
-11.7089 7.51887 -2.07468 0.17
-11.7288 7.4803 -2.07465 0.05
-11.7304 7.42924 -2.07065 0.17
-11.7541 7.41857 -2.07262 0.19
-11.7669 7.3752 -2.07061 0.18
-11.7817 7.33277 -2.06859 0.18
-11.7895 7.28654 -2.06658 0.18
-11.8043 7.24411 -2.06456 0.18
-11.7998 7.19022 -2.05956 0.18
-11.8136 7.14882 -2.05754 0.09
-11.8058 7.11902 -2.05454 0.09
-11.8145 7.07376 -2.05253 0.09
-11.8263 7.03042 -2.05051 0.08
-11.8371 6.9861 -2.0475 0.09
-11.8601 6.94945 -2.04847 0.09
-11.8617 6.90039 -2.04447 0.09
-11.8746 6.85801 -2.04245 0.08
-11.8772 6.80992 -2.03944 0.08
-11.8796 6.78685 -2.03744 0.08
-11.8904 6.74353 -2.03642 0.08
-11.8961 6.69736 -2.03341 0.09
-11.912 6.6569 -2.03239 0.08
-11.9269 6.61647 -2.03137 0.09
-11.9387 6.57413 -2.02936 0.09
-11.9546 6.53367 -2.02834 0.09
-11.9478 6.50585 -2.02534 0.08
-11.9556 6.46161 -2.02333 0.09
-11.9583 6.41452 -2.02032 0.09
-11.9823 6.37884 -2.0203 0.08
-11.9982 6.33938 -2.02028 0.08
-12.0019 6.29326 -2.01727 0.09
-12.0168 6.25283 -2.01625 0.08
-12.0283 6.23451 -2.01624 0.08
-12.032 6.18839 -2.01423 0.08
-12.0388 6.14518 -2.01122 0.09
-12.0476 6.10192 -2.0092 0.08
-12.0452 6.05297 -2.0062 0.15
-12.0591 6.01257 -2.00518 0.16
-12.069 5.97028 -2.00317 0.16
-12.0605 5.91949 -1.99917 0.04
-12.0619 5.89545 -1.99717 0.16
-12.0636 5.85038 -1.99416 0.05
-12.0745 5.80906 -1.99315 0.17
-12.0752 5.76203 -1.99014 0.05
-12.0769 5.71696 -1.98714 0.17
-12.0898 5.67659 -1.98612 0.05
-12.0915 5.63052 -1.98311 0.16
-12.098 5.61134 -1.9831 0.05
-12.0815 5.55777 -1.97711 0.16
-12.1025 5.52118 -1.97709 0.05
-12.1022 5.47517 -1.97409 0.16
-12.1151 5.43479 -1.97407 0.19
-12.129 5.39539 -1.97305 0.1
-12.1145 5.34377 -1.96806 0.18
-12.12 5.32361 -1.96705 0.05
-12.1197 5.27761 -1.96405 0.16
-12.1397 5.24104 -1.96503 0.05
-12.1344 5.19417 -1.96103 0.16
-12.1493 5.15474 -1.96101 0.19
-12.1673 5.11722 -1.96099 0.18
-12.165 5.07127 -1.95798 0.18
-12.1678 5.02818 -1.95598 0.04
-12.1662 5.00521 -1.95398 0.16
-12.1639 4.95926 -1.95097 0.18
-12.1738 4.91897 -1.94996 0.04
-12.1685 4.8731 -1.94696 0.16
-12.1874 4.83556 -1.94694 0.04
-12.1842 4.79063 -1.94394 0.15
-12.2052 4.75403 -1.94491 0.19
-12.1955 4.72829 -1.94192 0.09
-12.2013 4.68711 -1.94091 0.16
-12.2051 4.64399 -1.9389 0.05
-12.2049 4.59998 -1.9359 0.18
-12.2138 4.55972 -1.93488 0.2
-12.2146 4.51668 -1.93288 0.1
-12.2103 4.47178 -1.92988 0.19
-12.2162 4.4306 -1.92887 0.11
-12.2105 4.40675 -1.92687 0.18
-12.2042 4.36091 -1.92287 0.21
-12.201 4.31598 -1.91987 0.18
-12.2049 4.27486 -1.91886 0.24
-12.1754 4.22166 -1.91188 0.19
-12.1923 4.18417 -1.91186 0.25
-12.1861 4.14033 -1.90887 0.22
-12.1633 4.11095 -1.90388 0.19
-12.1884 4.07724 -1.90586 0.27
-12.1831 4.03237 -1.90286 0.24
-12.19 3.99216 -1.90185 0.23
-12.1565 3.93907 -1.89487 0.21
-12.1594 3.89798 -1.89287 0.32
-12.1723 3.8596 -1.89285 0.4
-12.1737 3.83956 -1.89185 0.28
-12.1877 3.80215 -1.89283 0.39
-12.2057 3.76564 -1.89381 0.25
-12.2439 3.73457 -1.89777 0.32
-12.2477 3.69445 -1.89676 0.25
-12.2596 3.6551 -1.89674 0.23
-12.2595 3.61309 -1.89474 0.21
-12.2761 3.59762 -1.89672 0.27
-12.2779 3.55655 -1.89472 0.23
-12.2929 3.51912 -1.8957 0.19
-12.3189 3.48439 -1.89767 0.26
-12.3167 3.44143 -1.89567 0.25
-12.3347 3.40492 -1.89665 0.19
-12.3608 3.37018 -1.89962 0.26
-12.3552 3.34833 -1.89762 0.18
-12.3691 3.30993 -1.8986 0.25
-12.374 3.26978 -1.8976 0.23
-12.3839 3.23049 -1.89758 0.21
-12.4019 3.19397 -1.89856 0.24
-12.4078 3.15379 -1.89755 0.19
-12.4248 3.11631 -1.89953 0.23
-12.4347 3.07702 -1.89952 0.19
-12.4391 3.05789 -1.89951 0.23
-12.4319 3.01507 -1.89651 0.19
-12.4489 2.97758 -1.89749 0.23
-12.4528 2.93646 -1.89648 0.18
-12.4657 2.89809 -1.89747 0.23
-12.4646 2.8571 -1.89547 0.19
-12.4866 2.82048 -1.89744 0.23
-12.478 2.79871 -1.89545 0.18
-12.4929 2.76028 -1.89643 0.23
-12.4968 2.72016 -1.89642 0.19
-12.5037 2.68095 -1.89541 0.23
-12.5025 2.63897 -1.89441 0.19
-12.5165 2.60056 -1.89539 0.25
-12.5143 2.55961 -1.89339 0.22
-12.5152 2.51857 -1.89238 0.2
-12.5327 2.50207 -1.89436 0.25
-12.5245 2.45929 -1.89137 0.22
-12.5284 2.41916 -1.89136 0.18
-12.5494 2.38256 -1.89333 0.26
-12.5412 2.33978 -1.89134 0.23
-12.5542 2.3014 -1.89132 0.2
-12.5752 2.2648 -1.8943 0.24
-12.5454 2.23862 -1.88832 0.19
-12.5755 2.20377 -1.89229 0.25
-12.5733 2.16182 -1.89129 0.23
-12.5682 2.12094 -1.88929 0.18
-12.5801 2.0826 -1.89027 0.27
-12.589 2.04333 -1.89026 0.23
-12.5889 2.00232 -1.88926 0.2
-12.6018 1.96395 -1.89024 0.25
-12.5942 1.94215 -1.88825 0.19
-12.6082 1.90375 -1.89023 0.25
-12.597 1.86204 -1.88723 0.21
-12.6099 1.82367 -1.88822 0.21
-12.6218 1.78432 -1.8892 0.25
-12.6278 1.74514 -1.88919 0.21
-12.6346 1.70494 -1.88918 0.12
-12.62 1.68334 -1.88619 0.21
-12.6329 1.64396 -1.88818 0.11
-12.6399 1.60475 -1.88817 0.21
-12.6448 1.5646 -1.88816 0.11
-12.6376 1.52379 -1.88616 0.2
-12.6506 1.48541 -1.88714 0.11
-12.6494 1.44443 -1.88614 0.2
-12.6553 1.40525 -1.88713 0.11
-12.6598 1.38512 -1.88712 0.19
-12.6657 1.34594 -1.88711 0.11
-12.6585 1.30512 -1.88512 0.18
-12.6705 1.26577 -1.8871 0.23
-12.6543 1.22421 -1.88411 0.18
-12.6622 1.18497 -1.8841 0.24
-12.6561 1.14413 -1.8831 0.18
-12.6715 1.12469 -1.88509 0.24
-12.6584 1.08404 -1.88209 0.19
-12.6603 1.04397 -1.88209 0.23
-12.6532 1.00315 -1.88009 0.17
-12.653 0.963142 -1.88009 0.24
-12.6559 0.923046 -1.88008 0.19
-12.6699 0.884644 -1.88206 0.12
-12.6563 0.864013 -1.87907 0.18
-12.6562 0.824001 -1.87907 0.05
-12.6551 0.784016 -1.87807 0.16
-12.654 0.744032 -1.87806 0.11
-12.6598 0.703853 -1.87805 0.19
-12.6658 0.664674 -1.87904 0.11
-12.6697 0.62455 -1.87903 0.18
-12.6796 0.58526 -1.88002 0.22
-12.686 0.565073 -1.88101 0.1
-12.6919 0.525894 -1.882 0.17
-12.6798 0.485215 -1.88001 0.05
-12.6767 0.445286 -1.87901 0.16
-12.6886 0.40594 -1.88099 0.05
-12.6915 0.365844 -1.88099 0.17
-12.6924 0.325804 -1.88098 0.05
-12.6808 0.306118 -1.87899 0.16
-12.6957 0.265688 -1.88097 0.05
-12.6886 0.225871 -1.87997 0.16
-12.6915 0.185775 -1.87997 0.05
-12.6834 0.145985 -1.87897 0.15
-12.6883 0.105834 -1.87996 0.19
-12.6802 0.0660434 -1.87897 0.04
-12.661 0.026559 -1.87498 0.16
-12.6625 0.00651109 -1.87598 0.18
-12.6544 -0.033279 -1.87498 0.1
-12.6463 -0.0730691 -1.87298 0.16
-12.6282 -0.112581 -1.87 0.05
-12.6141 -0.152205 -1.86801 0.17
-12.614 -0.191218 -1.868 0.1
-12.6049 -0.23098 -1.86701 0.18
-12.6023 -0.250917 -1.86701 0.21
-12.5962 -0.290762 -1.86601 0.2
-12.5911 -0.329636 -1.86501 0.22
-12.59 -0.369621 -1.86501 0.2
-12.5889 -0.408606 -1.865 0.23
-12.5798 -0.448368 -1.86401 0.18
-12.5837 -0.488492 -1.865 0.24
-12.5692 -0.507095 -1.86301 0.18
-12.5751 -0.547274 -1.864 0.24
-12.566 -0.586037 -1.86301 0.18
-12.5679 -0.626105 -1.863 0.24
-12.5638 -0.666006 -1.863 0.2
-12.5557 -0.704797 -1.862 0.23
-12.5476 -0.743587 -1.86101 0.22
-12.552 -0.763719 -1.862 0.2
-12.3947 -0.773352 -1.83715 0.23
-12.3866 -0.812142 -1.83615 0.18
-12.3815 -0.851016 -1.83616 0.24
-12.3835 -0.890084 -1.83715 0.19
-12.3704 -0.928736 -1.83516 0.11
-12.3513 -0.966221 -1.83217 0.2
-12.3582 -1.00543 -1.83416 0.11
-12.3467 -1.02412 -1.83217 0.19
-12.3616 -1.06454 -1.83515 0.11
-12.3635 -1.10361 -1.83615 0.16
-12.3425 -1.14104 -1.83316 0.05
-12.3444 -1.18011 -1.83416 0.17
-12.3353 -1.21887 -1.83316 0.05
-12.3312 -1.25778 -1.83316 0.16
-12.3311 -1.29679 -1.83416 0.05
-12.3366 -1.31695 -1.83515 0.17
-12.3185 -1.35446 -1.83316 0.05
-12.3264 -1.3947 -1.83515 0.16
-12.3084 -1.43121 -1.83316 0.05
-12.2973 -1.46992 -1.83217 0.16
-12.2893 -1.50771 -1.83118 0.19
-12.2922 -1.5468 -1.83217 0.1
-12.2817 -1.56552 -1.83118 0.18
-12.2786 -1.60445 -1.83218 0.11
-12.2775 -1.64343 -1.83217 0.18
-12.2624 -1.68103 -1.83118 0.23
-12.2414 -1.71746 -1.8282 0.18
-12.2473 -1.75764 -1.83019 0.25
-12.2343 -1.79429 -1.8292 0.22
-12.2278 -1.81312 -1.8282 0.17
-12.2217 -1.85196 -1.8282 0.26
-12.2077 -1.88859 -1.82721 0.25
-12.1936 -1.92621 -1.82622 0.19
-12.2174 -1.96889 -1.8302 0.27
-12.2034 -2.00651 -1.8292 0.23
-12.2003 -2.04544 -1.8302 0.18
-12.2207 -2.06902 -1.83318 0.27
-12.2216 -2.10806 -1.83518 0.22
-12.098 -2.12563 -1.81629 0.25
-12.084 -2.16226 -1.8153 0.26
-12.0501 -2.19533 -1.81033 0.29
-12.0122 -2.22729 -1.80536 0.32
-11.9563 -2.25575 -1.79742 0.36
-12.011 -2.30529 -1.80736 0.29
-12.0075 -2.3242 -1.80736 0.39
-12.0044 -2.36313 -1.80836 0.34
-11.8242 -2.36612 -1.78053 0.25
-11.6212 -2.36248 -1.74872 0.15
-11.4799 -2.37156 -1.72786 0.27
-11.4341 -2.3993 -1.7209 0.19
-11.4261 -2.43509 -1.7209 0.12
-11.4126 -2.45072 -1.71991 0.2
-11.4494 -2.49676 -1.72687 0.15
-11.5955 -2.56785 -1.75173 0.29
-11.5974 -2.60592 -1.75372 0.23
-11.6043 -2.64612 -1.75571 0.27
-11.644 -2.69424 -1.76367 0.27
-11.7622 -2.76055 -1.78455 0.24
-11.7269 -2.77158 -1.77958 0.35
-11.859 -2.84227 -1.80245 0.26
-11.8857 -2.88903 -1.80842 0.2
-11.9244 -2.93813 -1.81637 0.25
-11.9839 -2.9928 -1.82731 0.25
-12.0156 -3.0407 -1.83328 0.1
-12.0572 -3.09188 -1.84223 0.16
-12.1113 -3.12639 -1.85218 0.12
-12.0972 -3.16402 -1.85119 0.16
-12.1339 -3.21405 -1.85914 0.11
-12.095 -3.24399 -1.85418 0.18
-12.083 -3.28166 -1.85319 0.05
-12.0649 -3.31818 -1.8522 0.17
-12.0062 -3.34256 -1.84425 0.05
-11.9843 -3.37696 -1.84327 0.17
-11.9261 -3.38035 -1.83433 0.18
-11.8258 -3.39156 -1.81942 0.04
-11.7433 -3.40828 -1.8075 0.16
-11.6429 -3.4185 -1.79259 0.05
-11.4791 -3.40894 -1.76775 0.17
-11.3302 -3.4038 -1.74489 0.19
-11.1198 -3.37795 -1.7121 0
-10.9536 -3.34532 -1.68526 0
-10.9049 -3.36798 -1.6793 0
-12.1556 -3.79988 -1.88806 0.07
-12.1376 -3.8364 -1.88708 0.18
-12.1067 -3.86855 -1.8841 0.16
-12.0926 -3.90618 -1.88311 0.16
-12.0429 -3.93181 -1.87716 0.16
-12.0229 -3.96726 -1.87617 0.04
-11.9916 -3.9774 -1.8722 0.16
-11.9964 -4.02155 -1.87519 0.18
-11.9982 -4.06362 -1.87719 0.1
-12.0248 -4.11537 -1.88415 0.18
-11.9632 -4.13667 -1.87521 0.23
-11.9749 -4.18202 -1.8802 0.19
-11.944 -4.21417 -1.87722 0.23
-11.9197 -4.2265 -1.87424 0.18
-11.8858 -4.25657 -1.87027 0.35
-11.8421 -4.28236 -1.86531 0.27
-11.838 -4.32327 -1.86731 0.23
-11.819 -4.35875 -1.86633 0.25
-11.801 -4.39427 -1.86534 0.15
-11.7968 -4.43517 -1.86734 0.29
-11.7745 -4.44755 -1.86436 0.25
-11.8198 -4.50783 -1.87431 0.23
-11.7929 -4.5401 -1.87233 0.22
-11.8244 -4.595 -1.8803 0.26
-11.7708 -4.61651 -1.87334 0.19
-11.6865 -4.62618 -1.86142 0.05
-11.5993 -4.63276 -1.84951 0.16
-11.5423 -4.63117 -1.84056 0.05
-11.4689 -4.64414 -1.83063 0.16
-11.447 -4.67654 -1.82965 0.19
-11.4052 -4.70139 -1.82469 0.1
-11.3625 -4.72622 -1.82072 0.18
-11.3475 -4.76182 -1.82073 0.22
-11.2762 -4.77284 -1.8108 0.1
-11.3195 -4.83407 -1.82075 0.18
-11.2933 -4.84334 -1.81778 0.22
-11.2041 -4.84687 -1.80486 0.1
-11.114 -4.84936 -1.79195 0.09
-11.0743 -4.87327 -1.78798 0.17
-10.9931 -4.87902 -1.77606 0.22
-10.906 -4.8806 -1.76414 0.19
-10.812 -4.87899 -1.75023 0.21
-10.7196 -4.85741 -1.73533 0.18
-10.6177 -4.85158 -1.72042 0.24
-10.5217 -4.84791 -1.70652 0.19
-10.3616 -4.81345 -1.68167 0.05
-10.2548 -4.80248 -1.66578 0
-10.1728 -4.8032 -1.65385 0
-10.1431 -4.82839 -1.65088 0
-10.9253 -5.26629 -1.79209 0.21
-10.8857 -5.28919 -1.78812 0.24
-10.9023 -5.33967 -1.7941 0.27
-10.8251 -5.34453 -1.78417 0.21
-10.7401 -5.34417 -1.77125 0.29
-10.6659 -5.34911 -1.76132 0.24
-10.6243 -5.36997 -1.75736 0.26
-10.5754 -5.36661 -1.75041 0.32
-10.5328 -5.38643 -1.74545 0.24
-10.5011 -5.41156 -1.74248 0.29
-10.4497 -5.42614 -1.73652 0.32
-10.3834 -5.4333 -1.72759 0.24
-10.2916 -5.42675 -1.71467 0.31
-10.2569 -5.44979 -1.71171 0.3
-10.2396 -5.46132 -1.70972 0.29
-10.1921 -5.477 -1.70476 0.32
-10.1614 -5.50116 -1.70179 0.27
-10.1583 -5.54109 -1.70479 0.32
-10.0833 -5.54201 -1.69486 0.27
-9.99546 -5.53356 -1.68195 0.29
-9.98644 -5.57033 -1.68295 0.29
-9.94492 -5.58818 -1.67899 0.32
-9.89316 -5.57874 -1.67104 0.28
-9.87528 -5.61026 -1.67105 0.3
-9.82785 -5.62494 -1.6661 0.27
-9.78144 -5.63866 -1.66014 0.36
-9.74684 -5.65971 -1.65717 0.27
-9.71521 -5.68184 -1.6552 0.17
-9.67667 -5.70078 -1.65123 0.32
-9.82769 -5.81101 -1.68008 0.23
-10.1248 -6.03035 -1.73877 0.23
-10.158 -6.0933 -1.74773 0.26
-10.1136 -6.11007 -1.74377 0.33
-10.136 -6.16772 -1.75175 0.26
-10.1013 -6.18976 -1.74878 0.27
-10.0303 -6.18979 -1.73884 0.23
-9.97502 -6.19926 -1.7319 0.17
-9.98033 -6.22441 -1.73489 0.28
-9.97914 -6.2674 -1.73889 0.18
-9.97303 -6.30724 -1.74089 0.24
-9.92954 -6.32404 -1.73693 0.19
-9.86445 -6.32624 -1.72799 0.23
-9.80038 -6.32746 -1.72005 0.18
-9.7589 -6.34431 -1.71609 0.23
-9.7239 -6.34334 -1.71112 0.18
-9.66081 -6.34559 -1.70318 0.24
-9.59477 -6.34575 -1.69424 0.19
-9.52876 -6.34492 -1.68531 0.25
-9.44703 -6.33365 -1.67339 0.22
-9.37122 -6.32554 -1.66346 0.18
-9.32684 -6.33831 -1.6585 0.26
-9.26344 -6.31554 -1.64856 0.22
-9.20531 -6.31893 -1.64162 0.2
-9.13544 -6.31298 -1.63169 0.25
-9.02925 -6.28202 -1.61479 0.23
-8.97121 -6.28241 -1.60785 0.18
-8.91314 -6.2838 -1.5999 0.26
-8.84627 -6.27794 -1.59097 0.21
-8.79564 -6.26353 -1.58302 0
-8.75235 -6.27333 -1.57806 0
-9.67903 -6.98835 -1.7631 0.1
-9.64935 -7.01253 -1.76212 0.19
-9.59022 -7.01589 -1.75418 0.32
-9.57915 -7.0546 -1.75719 0.31
-9.57007 -7.09336 -1.75919 0.26
-9.55568 -7.10697 -1.7592 0.36
-9.51228 -7.12077 -1.75424 0.33
-9.51198 -7.16778 -1.75924 0.36
-9.48621 -7.19507 -1.75826 0.34
-9.44086 -7.20682 -1.7543 0.3
-9.42684 -7.24344 -1.75531 0.37
-9.43535 -7.2977 -1.7623 0.26
-9.43602 -7.34574 -1.76629 0.31
-9.41774 -7.35523 -1.76531 0.29
-9.40861 -7.396 -1.76831 0.31
-9.32016 -7.37453 -1.7554 0.21
-9.25818 -7.37281 -1.74746 0.29
-9.206 -7.37836 -1.74151 0.2
-9.17537 -7.40052 -1.73954 0.25
-9.13983 -7.41954 -1.73757 0.23
-9.12938 -7.43526 -1.73758 0.25
-9.10753 -7.46566 -1.73859 0.28
-9.08082 -7.49093 -1.73762 0.28
-9.05114 -7.51511 -1.73664 0.28
-9.03812 -7.55177 -1.73865 0.32
-9.05928 -7.61838 -1.74762 0.31
-9.01202 -7.62707 -1.74267 0.28
-8.99083 -7.63349 -1.74069 0.23
-8.96017 -7.65664 -1.73971 0.32
-8.93444 -7.68294 -1.73974 0.29
-8.87448 -7.68027 -1.73179 0.27
-8.8048 -7.66733 -1.72286 0.16
-8.7937 -7.70704 -1.72487 0.32
-8.77673 -7.74158 -1.72688 0.17
-8.72041 -7.71601 -1.71694 0.24
-8.6361 -7.68966 -1.70502 0.18
-8.60842 -7.7139 -1.70404 0.23
-8.53291 -7.69479 -1.69312 0.18
-8.47792 -7.69327 -1.68617 0.23
-8.42585 -7.69482 -1.68022 0.19
-8.39334 -7.71292 -1.67925 0.21
-8.38032 -7.74958 -1.68126 0.1
-8.35429 -7.74985 -1.67828 0.19
-8.31786 -7.76485 -1.67532 0.11
-8.25899 -7.75921 -1.66837 0.18
-8.20697 -7.75877 -1.66242 0.11
-8.15596 -7.75835 -1.65647 0.18
-8.10298 -7.75688 -1.65052 0.11
-8.04319 -7.74821 -1.64258 0.19
-8.01817 -7.74852 -1.63961 0.11
-7.95643 -7.7378 -1.63167 0.2
-7.90836 -7.73947 -1.62671 0.11
-7.85154 -7.73188 -1.61877 0.2
-7.80933 -7.73871 -1.61481 0.11
-7.74863 -7.72702 -1.60687 0.2
-7.70353 -7.72977 -1.60191 0.11
-7.6649 -7.71569 -1.59595 0.18
-7.59742 -7.69581 -1.58701 0.05
-7.53576 -7.68209 -1.57807 0.17
-7.48681 -7.67973 -1.57312 0.2
-7.44465 -7.68457 -1.56916 0.09
-7.40833 -7.69556 -1.56619 0
-7.34093 -7.67268 -1.55626 0
-7.29294 -7.67135 -1.55031 0
-7.26509 -7.66557 -1.54733 0
-7.25793 -7.70739 -1.55134 0
-7.69095 -8.22062 -1.65687 0.02
-7.82943 -8.42254 -1.69572 0.11
-7.7775 -8.4191 -1.68977 0.17
-7.74304 -8.43515 -1.6878 0.19
-7.68239 -8.42146 -1.67986 0.31
-7.67001 -8.43512 -1.67987 0.32
-7.63557 -8.45017 -1.6779 0.29
-7.57589 -8.43751 -1.66996 0.34
-7.55118 -8.46283 -1.66998 0.35
-7.50511 -8.46455 -1.66602 0.3
-7.45613 -8.46319 -1.66007 0.35
-7.40717 -8.46083 -1.65512 0.29
-7.36573 -8.43967 -1.64816 0.3
-7.31772 -8.43934 -1.6432 0.29
-7.28331 -8.45339 -1.64123 0.39
-7.23149 -8.44595 -1.63528 0.32
-7.18742 -8.44772 -1.63133 0.31
-7.13755 -8.44234 -1.62538 0.3
-7.09348 -8.44411 -1.62142 0.29
-7.05788 -8.42912 -1.61545 0.32
-7.01578 -8.43195 -1.61149 0.32
-6.97365 -8.43578 -1.60753 0.32
-6.92772 -8.4325 -1.60258 0.32
-6.86915 -8.41587 -1.59563 0.29
-6.82802 -8.41973 -1.59167 0.3
-6.79273 -8.42975 -1.58971 0.33
-6.75138 -8.4056 -1.58175 0.32
-6.70545 -8.40232 -1.57679 0.28
-6.66629 -8.40723 -1.57383 0.33
-6.62328 -8.40704 -1.56987 0.32
-6.57254 -8.39663 -1.56392 0.3
-6.53822 -8.40768 -1.56195 0.31
-6.48751 -8.39626 -1.555 0.31
-6.45513 -8.40937 -1.55403 0.34
-6.4177 -8.38832 -1.54807 0.3
-6.37379 -8.3841 -1.54311 0.31
-6.33469 -8.38702 -1.53915 0.31
-6.29268 -8.38685 -1.53519 0.32
-6.25163 -8.38771 -1.53223 0.22
-6.2097 -8.38455 -1.52727 0.45
-6.16771 -8.38338 -1.52331 0.3
-6.14097 -8.37363 -1.51934 0.31
-6.10573 -8.38166 -1.51737 0.34
-6.06474 -8.38052 -1.51341 0.32
-6.03242 -8.39163 -1.51144 0.32
-6.00302 -8.40581 -1.51146 0.23
-5.97261 -8.41998 -1.51049 0.34
-5.95765 -8.45457 -1.5135 0.33
-5.93691 -8.48101 -1.51452 0.25
-5.91302 -8.47634 -1.51154 0.29
-5.90189 -8.51705 -1.51655 0.31
-5.91479 -8.59344 -1.52753 0.34
-5.88633 -8.60965 -1.52755 0.38
-5.84728 -8.61057 -1.52359 0.38
-5.81016 -8.61454 -1.52063 0.36
-5.78842 -8.64095 -1.52264 0.38
-5.7617 -8.6302 -1.51867 0.37
-5.69291 -8.58527 -1.50674 0.36
-5.67117 -8.61168 -1.50876 0.37
-5.62352 -8.59835 -1.50281 0.38
-5.59608 -8.6136 -1.50183 0.43
-5.57912 -8.64814 -1.50584 0.38
-5.54591 -8.65522 -1.50388 0.36
-5.52975 -8.66077 -1.50289 0.37
-5.50034 -8.67496 -1.50192 0.4
-5.48529 -8.71256 -1.50593 0.37
-5.46739 -8.74507 -1.50894 0.38
-5.42079 -8.72977 -1.50299 0.36
-5.35691 -8.68798 -1.49205 0.38
-5.35242 -8.74188 -1.49905 0.33
-5.33246 -8.74033 -1.49707 0.43
-5.3088 -8.76368 -1.49809 0.37
-5.2574 -8.74124 -1.49114 0.32
-5.22802 -8.75443 -1.49017 0.39
-5.19672 -8.76457 -1.4892 0.47
-5.13582 -8.72386 -1.47926 0.35
-5.09214 -8.71164 -1.4743 0.36
-5.01681 -8.61351 -1.45439 0.38
-5.06096 -8.75379 -1.47733 0.36
-5.04211 -8.78428 -1.48034 0.43
-5.03087 -8.82899 -1.48535 0.38
-4.9986 -8.83809 -1.48438 0.43
-4.94258 -8.80152 -1.47444 0.38
-4.89699 -8.78625 -1.46948 0.35
-4.85622 -8.77712 -1.46452 0.36
-4.83056 -8.7644 -1.46055 0.34
-4.79074 -8.75729 -1.45659 0.42
-4.76333 -8.77153 -1.45661 0.38
-4.74162 -8.79694 -1.45863 0.4
-4.69705 -8.7807 -1.45367 0.39
-4.662 -8.78172 -1.45071 0.41
-4.63363 -8.79494 -1.45073 0.39
-4.59002 -8.74371 -1.43978 0.33
-4.52742 -8.69195 -1.42785 0.41
-4.52949 -8.76204 -1.43784 0.43
-4.47167 -8.71841 -1.4279 0.39
-4.47748 -8.79761 -1.43988 0.36
-4.45574 -8.82401 -1.4419 0.43
-4.4122 -8.8068 -1.43594 0.39
-4.36676 -8.74951 -1.42499 0.33
-4.34882 -8.78303 -1.42801 0.4
-4.32425 -8.80335 -1.43003 0.38
-4.28454 -8.79225 -1.42507 0.37
-4.24769 -8.78622 -1.4221 0.41
-4.19948 -8.75687 -1.41415 0.43
-4.1636 -8.75187 -1.41119 0.38
-4.14092 -8.77625 -1.41321 0.35
-4.1277 -8.78389 -1.41322 0.43
-4.09846 -8.79208 -1.41225 0.31
-4.04558 -8.75059 -1.4033 0.48
-4.00596 -8.73649 -1.39834 0.4
-3.98141 -8.75581 -1.40036 0.35
-3.94934 -8.75792 -1.39839 0.41
-3.89466 -8.70939 -1.38745 0.39
-3.87202 -8.69575 -1.38447 0.35
-3.8682 -8.76167 -1.39347 0.32
-3.8681 -8.8377 -1.40446 0.37
-3.8313 -8.82967 -1.4015 0.42
-3.80493 -8.84295 -1.40152 0.39
-3.77096 -8.841 -1.39855 0.36
-3.73417 -8.83298 -1.39559 0.38
-3.70692 -8.80521 -1.38962 0.4
-3.67952 -8.81946 -1.39064 0.29
-3.63625 -8.79224 -1.38369 0.48
-3.63143 -8.85814 -1.39268 0.36
-3.59374 -8.84609 -1.38872 0.39
-3.56262 -8.85022 -1.38775 0.43
-3.5306 -8.85033 -1.38578 0.4
-3.51363 -8.84886 -1.3848 0.32
-3.51151 -8.92583 -1.39579 0.38
-3.48324 -8.93505 -1.39582 0.37
-3.4353 -8.89571 -1.38687 0.39
-3.4024 -8.89179 -1.3849 0.43
-3.38158 -8.92122 -1.38792 0.35
-3.34861 -8.91931 -1.38595 0.41
-3.32048 -8.88751 -1.37998 0.39
-3.29499 -8.90481 -1.381 0.38
-3.28442 -8.96154 -1.38901 0.38
-3.2319 -8.90706 -1.37806 0.4
-3.21389 -8.94358 -1.38208 0.39
-3.18834 -8.96287 -1.3841 0.37
-3.15916 -8.96907 -1.38312 0.39
-3.1207 -8.94899 -1.37816 0.37
-3.11673 -8.98389 -1.38316 0.36
-3.0903 -8.99917 -1.38419 0.37
-3.06664 -9.02252 -1.38621 0.38
-3.02821 -9.00144 -1.38125 0.35
-2.99161 -8.98642 -1.37728 0.41
-2.93934 -8.92294 -1.36534 0.39
-2.86779 -8.79691 -1.34242 0.3
-2.84724 -8.78033 -1.33944 0.39
-2.83555 -8.84103 -1.34745 0.46
-2.83676 -8.9421 -1.36344 0.34
-2.76813 -8.81915 -1.34151 0.39
-2.7702 -8.92525 -1.3575 0.43
-2.74379 -8.93952 -1.35853 0.4
-2.71375 -8.94069 -1.35755 0.39
-2.71606 -9.00178 -1.36655 0.36
-2.68691 -9.00697 -1.36557 0.37
-2.65044 -8.98695 -1.36161 0.42
-2.62132 -8.99114 -1.36064 0.39
-2.6003 -9.02757 -1.36565 0.34
-2.58031 -9.06303 -1.36967 0.42
-2.54388 -9.04201 -1.36471 0.34
-2.53786 -9.07886 -1.37071 0.43
-2.51059 -9.0881 -1.37073 0.36
-2.47499 -9.07311 -1.36677 0.44
-2.43405 -9.03396 -1.35981 0.34
-2.41037 -9.05831 -1.36183 0.43
-2.36946 -9.01816 -1.35388 0.36
-2.33578 -9.00622 -1.35091 0.45
-2.30398 -8.99833 -1.34894 0.34
-2.30243 -9.05431 -1.35694 0.43
-2.27334 -9.05751 -1.35696 0.35
-2.24865 -9.08183 -1.35998 0.41
-2.23839 -9.16358 -1.37199 0.45
-2.19665 -9.1174 -1.36303 0.33
-2.17555 -9.15683 -1.36805 0.4
-2.13389 -9.10765 -1.35909 0.36
-2.11264 -9.08005 -1.35411 0.37
-2.09066 -9.11546 -1.35913 0.34
-2.06686 -9.14381 -1.36215 0.5
-1.9808 -8.89132 -1.32026 0.4
-2.01117 -9.16827 -1.3642 0.27
-1.98557 -9.18957 -1.36722 0.46
-1.9334 -9.08608 -1.34929 0.43
-1.93614 -9.16819 -1.36227 0.34
-1.89556 -9.11604 -1.35232 0.4
-1.86118 -9.09308 -1.34835 0.34
-1.84525 -9.16266 -1.35836 0.38
-1.80473 -9.10851 -1.34841 0.45
-1.77121 -9.09058 -1.34444 0.32
-1.75959 -9.18529 -1.35944 0.48
-1.74724 -9.19795 -1.36045 0.39
-1.70416 -9.12773 -1.3485 0.36
-1.65936 -9.04745 -1.33455 0.41
-1.62773 -9.03357 -1.33158 0.36
-1.61169 -9.10715 -1.34259 0.4
-1.59115 -9.16261 -1.3506 0.34
-1.56636 -9.19093 -1.35463 0.41
-1.52778 -9.13884 -1.34567 0.36
-1.51806 -9.16458 -1.34967 0.38
-1.49311 -9.1989 -1.35469 0.4
-1.45553 -9.14683 -1.34474 0.39
-1.41464 -9.06967 -1.33178 0.34
-1.38718 -9.08591 -1.33381 0.42
-1.36912 -9.16044 -1.34482 0.32
-1.33674 -9.13753 -1.34085 0.46
-1.33347 -9.21947 -1.35384 0.34
-1.30357 -9.21564 -1.35287 0.42
-1.26782 -9.16963 -1.34491 0.39
-1.23867 -9.17482 -1.34494 0.35
-1.21204 -9.19709 -1.34796 0.43
-1.18711 -9.23041 -1.35198 0.35
-1.15237 -9.18443 -1.34502 0.39
-1.12583 -9.09466 -1.33006 0.41
-1.10093 -9.12698 -1.33408 0.39
-1.076 -9.1603 -1.3391 0.31
-1.05249 -9.21467 -1.34711 0.35
-1.01143 -9.10749 -1.33016 0.39
-0.982417 -9.10768 -1.32919 0.34
-0.949534 -9.06675 -1.32223 0.48
-0.945718 -9.16869 -1.33822 0.3
-0.915006 -9.15783 -1.33625 0.47
-0.88685 -9.16305 -1.33628 0.36
-0.858667 -9.16927 -1.3373 0.38
-0.8373 -9.25471 -1.35032 0.41
-0.804196 -9.22178 -1.34535 0.46
-0.754175 -8.96829 -1.30443 0.3
-0.751448 -9.28434 -1.35439 0.4
-0.73648 -9.28292 -1.35341 0.4
-0.704431 -9.24802 -1.34744 0.41
-0.665843 -9.1239 -1.32749 0.4
-0.643421 -9.21131 -1.34151 0.39
-0.610759 -9.16239 -1.33354 0.39
-0.585387 -9.2117 -1.34056 0.36
-0.558182 -9.25496 -1.34758 0.41
-0.543436 -9.24555 -1.3456 0.38
-0.512249 -9.21567 -1.34063 0.39
-0.487241 -9.28801 -1.35165 0.38
-0.455607 -9.23811 -1.34368 0.34
-0.426425 -9.2443 -1.34471 0.41
-0.392084 -9.11129 -1.32376 0.29
-0.36669 -9.19762 -1.33677 0.48
-0.350828 -9.15617 -1.32979 0.36
-0.323933 -9.22445 -1.34081 0.37
-0.294944 -9.22364 -1.34084 0.35
-0.265005 -9.18479 -1.33487 0.46
-0.236292 -9.17399 -1.3329 0.38
-0.20817 -9.21423 -1.33892 0.34
-0.175204 -8.99523 -1.30398 0.43
-0.160568 -8.98181 -1.30199 0.28
-0.134468 -9.16616 -1.331 0.46
-0.105728 -9.15636 -1.33003 0.31
-0.0770152 -9.14556 -1.32805 0.43
-0.0483625 -9.16877 -1.33108 0.41
-0.0194122 -9.239 -1.3421 0.42
0.00977486 -9.20918 -1.33813 0.34
0.0233608 -9.15778 -1.33015 0.46
0.0523228 -9.15597 -1.32918 0.36
0.0819405 -9.21417 -1.3392 0.4
0.11162 -9.23836 -1.34223 0.35
0.140554 -9.23556 -1.34225 0.46
0.168908 -9.21176 -1.33828 0.3
0.198559 -9.23494 -1.34231 0.43
0.210489 -9.12357 -1.32433 0.42
0.239141 -9.14678 -1.32836 0.32
0.26962 -9.19996 -1.33738 0.43
0.299299 -9.22414 -1.34141 0.45
0.330392 -9.2633 -1.34743 0.35
0.35678 -9.20454 -1.33846 0.45
0.388563 -9.26868 -1.34849 0.29
0.403723 -9.27426 -1.3495 0.46
0.432187 -9.25447 -1.34653 0.45
0.459127 -9.2157 -1.34056 0.29
0.488419 -9.22589 -1.34259 0.46
0.516856 -9.2051 -1.33962 0.3
0.542188 -9.14437 -1.33065 0.43
0.568073 -9.10363 -1.32468 0.43
0.598558 -9.12079 -1.3277 0.32
0.611112 -9.10444 -1.32472 0.39
0.646473 -9.18949 -1.33874 0.33
0.672496 -9.15375 -1.33377 0.54
0.698464 -9.11602 -1.3278 0.35
0.732164 -9.17711 -1.33783 0.4
0.763704 -9.19624 -1.34085 0.35
0.794188 -9.2134 -1.34488 0.45
0.805411 -9.18508 -1.33989 0.41
0.835399 -9.18424 -1.34092 0.39
0.861643 -9.1565 -1.33595 0.38
0.8893 -9.14373 -1.33498 0.32
0.916793 -9.12496 -1.33201 0.47
0.955429 -9.21993 -1.34803 0.3
0.976404 -9.14631 -1.33706 0.43
0.992701 -9.15687 -1.33908 0.38
1.02321 -9.17503 -1.3421 0.39
1.05087 -9.16225 -1.34113 0.37
1.07698 -9.12952 -1.33616 0.41
1.08397 -8.94825 -1.30719 0.32
1.1311 -9.097 -1.33222 0.45
1.16902 -9.16598 -1.34324 0.35
1.17658 -9.11374 -1.33526 0.38
1.20049 -9.07407 -1.33028 0.34
1.23456 -9.11213 -1.33631 0.42
1.276 -9.20002 -1.35134 0.36
1.30113 -9.16831 -1.34737 0.5
1.32637 -9.1406 -1.3434 0.4
1.3466 -9.07601 -1.33342 0.36
1.37328 -9.06426 -1.33245 0.32
1.39077 -9.08179 -1.33547 0.42
